-1368.133315 959.605140 700.000000
-1369.807254 958.510641 700.000000
-1371.481194 957.416143 700.000000
-1373.155133 956.321644 700.000000
-1374.829072 955.227145 700.000000
-1376.503011 954.132647 700.000000
-1378.176950 953.038148 700.000000
-1379.850890 951.943649 700.000000
-1381.524829 950.849150 700.000000
-1383.198768 949.754652 700.000000
-1384.872707 948.660153 700.000000
-1386.546647 947.565654 700.000000
-1388.220586 946.471155 700.000000
-1389.894525 945.376657 700.000000
-1392.000000 944.000000 700.000000
-1393.490594 943.381263 701.181225
-1394.981188 942.762526 702.362451
-1396.471782 942.143789 703.543676
-1397.962376 941.525051 704.724902
-1399.452970 940.906314 705.906127
-1400.943564 940.287577 707.087353
-1402.434158 939.668840 708.268578
-1403.924753 939.050103 709.449804
-1405.415347 938.431366 710.631029
-1406.905941 937.812628 711.812255
-1408.396535 937.193891 712.993480
-1409.887129 936.575154 714.174706
-1411.377723 935.956417 715.355931
-1412.868317 935.337680 716.537157
-1414.358911 934.718943 717.718382
-1415.849505 934.100205 718.899608
-1417.340099 933.481468 720.080833
-1418.830693 932.862731 721.262059
-1420.321287 932.243994 722.443284
-1421.811881 931.625257 723.624510
-1423.302475 931.006520 724.805735
-1424.793069 930.387782 725.986961
-1426.283664 929.769045 727.168186
-1427.774258 929.150308 728.349412
-1429.264852 928.531571 729.530637
-1430.755446 927.912834 730.711863
-1432.246040 927.294097 731.893088
-1433.736634 926.675360 733.074314
-1435.227228 926.056622 734.255539
-1436.717822 925.437885 735.436765
-1438.208416 924.819148 736.617990
-1439.699010 924.200411 737.799216
-1441.189604 923.581674 738.980441
-1442.680198 922.962937 740.161667
-1444.170792 922.344199 741.342892
-1445.661386 921.725462 742.524118
-1447.151981 921.106725 743.705343
-1448.642575 920.487988 744.886569
-1450.133169 919.869251 746.067794
-1451.623763 919.250514 747.249020
-1453.114357 918.631776 748.430245
-1454.604951 918.013039 749.611470
-1456.095545 917.394302 750.792696
-1457.586139 916.775565 751.973921
-1459.076733 916.156828 753.155147
-1460.567327 915.538091 754.336372
-1462.057921 914.919353 755.517598
-1463.548515 914.300616 756.698823
-1465.039109 913.681879 757.880049
-1466.529703 913.063142 759.061274
-1468.020297 912.444405 760.242500
-1469.510892 911.825668 761.423725
-1471.001486 911.206931 762.604951
-1472.492080 910.588193 763.786176
-1473.982674 909.969456 764.967402
-1475.473268 909.350719 766.148627
-1476.963862 908.731982 767.329853
-1478.454456 908.113245 768.511078
-1479.945050 907.494508 769.692304
-1481.435644 906.875770 770.873529
-1482.926238 906.257033 772.054755
-1484.416832 905.638296 773.235980
-1485.907426 905.019559 774.417206
-1487.398020 904.400822 775.598431
-1488.888614 903.782085 776.779657
-1490.379208 903.163347 777.960882
-1491.869803 902.544610 779.142108
-1493.360397 901.925873 780.323333
-1494.850991 901.307136 781.504559
-1496.341585 900.688399 782.685784
-1497.832179 900.069662 783.867010
-1499.322773 899.450924 785.048235
-1500.813367 898.832187 786.229461
-1502.303961 898.213450 787.410686
-1503.794555 897.594713 788.591912
-1505.285149 896.975976 789.773137
-1506.775743 896.357239 790.954363
-1508.266337 895.738502 792.135588
-1509.756931 895.119764 793.316814
-1511.247525 894.501027 794.498039
-1512.738119 893.882290 795.679264
-1514.228714 893.263553 796.860490
-1515.719308 892.644816 798.041715
-1517.209902 892.026079 799.222941
-1518.700496 891.407341 800.404166
-1520.191090 890.788604 801.585392
-1521.681684 890.169867 802.766617
-1523.172278 889.551130 803.947843
-1524.662872 888.932393 805.129068
-1526.153466 888.313656 806.310294
-1527.644060 887.694918 807.491519
-1529.134654 887.076181 808.672745
-1530.625248 886.457444 809.853970
-1532.115842 885.838707 811.035196
-1533.606436 885.219970 812.216421
-1535.097030 884.601233 813.397647
-1536.587625 883.982495 814.578872
-1538.078219 883.363758 815.760098
-1539.568813 882.745021 816.941323
-1541.059407 882.126284 818.122549
-1542.550001 881.507547 819.303774
-1544.040595 880.888810 820.485000
-1545.531189 880.270073 821.666225
-1547.021783 879.651335 822.847451
-1548.512377 879.032598 824.028676
-1550.002971 878.413861 825.209902
-1551.493565 877.795124 826.391127
-1552.984159 877.176387 827.572353
-1554.474753 876.557650 828.753578
-1555.965347 875.938912 829.934804
-1557.455942 875.320175 831.116029
-1558.946536 874.701438 832.297255
-1560.437130 874.082701 833.478480
-1561.927724 873.463964 834.659706
-1563.418318 872.845227 835.840931
-1564.908912 872.226489 837.022157
-1566.399506 871.607752 838.203382
-1567.890100 870.989015 839.384608
-1569.380694 870.370278 840.565833
-1570.871288 869.751541 841.747059
-1572.361882 869.132804 842.928284
-1573.852476 868.514066 844.109509
-1575.343070 867.895329 845.290735
-1576.833664 867.276592 846.471960
-1578.324258 866.657855 847.653186
-1579.814853 866.039118 848.834411
-1581.305447 865.420381 850.015637
-1582.796041 864.801644 851.196862
-1584.286635 864.182906 852.378088
-1585.777229 863.564169 853.559313
-1587.267823 862.945432 854.740539
-1588.758417 862.326695 855.921764
-1590.249011 861.707958 857.102990
-1591.739605 861.089221 858.284215
-1593.230199 860.470483 859.465441
-1594.720793 859.851746 860.646666
-1596.211387 859.233009 861.827892
-1597.701981 858.614272 863.009117
-1599.192575 857.995535 864.190343
-1600.683169 857.376798 865.371568
-1602.173764 856.758060 866.552794
-1603.664358 856.139323 867.734019
-1605.154952 855.520586 868.915245
-1606.645546 854.901849 870.096470
-1608.136140 854.283112 871.277696
-1609.626734 853.664375 872.458921
-1611.117328 853.045637 873.640147
-1612.607922 852.426900 874.821372
-1614.098516 851.808163 876.002598
-1615.589110 851.189426 877.183823
-1617.079704 850.570689 878.365049
-1618.570298 849.951952 879.546274
-1620.060892 849.333215 880.727500
-1621.551486 848.714477 881.908725
-1623.042080 848.095740 883.089951
-1624.532675 847.477003 884.271176
-1626.023269 846.858266 885.452402
-1627.513863 846.239529 886.633627
-1629.004457 845.620792 887.814853
-1630.495051 845.002054 888.996078
-1631.985645 844.383317 890.177303
-1633.476239 843.764580 891.358529
-1634.966833 843.145843 892.539754
-1636.457427 842.527106 893.720980
-1637.948021 841.908369 894.902205
-1639.438615 841.289631 896.083431
-1640.929209 840.670894 897.264656
-1642.419803 840.052157 898.445882
-1643.910397 839.433420 899.627107
-1645.400991 838.814683 900.808333
-1646.891586 838.195946 901.989558
-1648.382180 837.577208 903.170784
-1649.872774 836.958471 904.352009
-1651.363368 836.339734 905.533235
-1652.853962 835.720997 906.714460
-1654.344556 835.102260 907.895686
-1655.835150 834.483523 909.076911
-1657.325744 833.864785 910.258137
-1658.816338 833.246048 911.439362
-1660.306932 832.627311 912.620588
-1661.797526 832.008574 913.801813
-1663.288120 831.389837 914.983039
-1664.778714 830.771100 916.164264
-1666.269308 830.152363 917.345490
-1667.759903 829.533625 918.526715
-1669.250497 828.914888 919.707941
-1670.741091 828.296151 920.889166
-1672.231685 827.677414 922.070392
-1673.722279 827.058677 923.251617
-1675.212873 826.439940 924.432843
-1676.703467 825.821202 925.614068
-1678.194061 825.202465 926.795294
-1679.684655 824.583728 927.976519
-1681.175249 823.964991 929.157745
-1682.665843 823.346254 930.338970
-1684.156437 822.727517 931.520196
-1685.647031 822.108779 932.701421
-1687.137625 821.490042 933.882647
-1688.628219 820.871305 935.063872
-1690.118814 820.252568 936.245098
-1691.609408 819.633831 937.426323
-1693.100002 819.015094 938.607548
-1694.590596 818.396356 939.788774
-1696.081190 817.777619 940.969999
-1697.571784 817.158882 942.151225
-1699.062378 816.540145 943.332450
-1700.552972 815.921408 944.513676
-1702.043566 815.302671 945.694901
-1703.534160 814.683934 946.876127
-1705.024754 814.065196 948.057352
-1706.515348 813.446459 949.238578
-1708.005942 812.827722 950.419803
-1709.496536 812.208985 951.601029
-1710.987130 811.590248 952.782254
-1712.477725 810.971511 953.963480
-1713.968319 810.352773 955.144705
-1715.458913 809.734036 956.325931
-1716.949507 809.115299 957.507156
-1718.440101 808.496562 958.688382
-1719.930695 807.877825 959.869607
-1721.421289 807.259088 961.050833
-1722.911883 806.640350 962.232058
-1724.402477 806.021613 963.413284
-1725.893071 805.402876 964.594509
-1727.383665 804.784139 965.775735
-1728.874259 804.165402 966.956960
-1730.364853 803.546665 968.138186
-1731.855447 802.927927 969.319411
-1733.346041 802.309190 970.500637
-1734.836636 801.690453 971.681862
-1736.327230 801.071716 972.863088
-1737.817824 800.452979 974.044313
-1739.308418 799.834242 975.225539
-1740.799012 799.215505 976.406764
-1742.289606 798.596767 977.587990
-1743.780200 797.978030 978.769215
-1745.270794 797.359293 979.950441
-1746.761388 796.740556 981.131666
-1748.251982 796.121819 982.312892
-1749.742576 795.503082 983.494117
-1751.233170 794.884344 984.675342
-1752.723764 794.265607 985.856568
-1754.214358 793.646870 987.037793
-1755.704952 793.028133 988.219019
-1757.195547 792.409396 989.400244
-1758.686141 791.790659 990.581470
-1760.176735 791.171921 991.762695
-1761.667329 790.553184 992.943921
-1763.157923 789.934447 994.125146
-1764.648517 789.315710 995.306372
-1766.139111 788.696973 996.487597
-1767.629705 788.078236 997.668823
-1769.120299 787.459498 998.850048
-1770.610893 786.840761 1000.031274
-1772.101487 786.222024 1001.212499
-1773.592081 785.603287 1002.393725
-1775.082675 784.984550 1003.574950
-1776.573269 784.365813 1004.756176
-1778.063864 783.747076 1005.937401
-1779.554458 783.128338 1007.118627
-1781.045052 782.509601 1008.299852
-1782.535646 781.890864 1009.481078
-1784.026240 781.272127 1010.662303
-1785.516834 780.653390 1011.843529
-1787.007428 780.034653 1013.024754
-1788.498022 779.415915 1014.205980
-1789.988616 778.797178 1015.387205
-1791.479210 778.178441 1016.568431
-1792.969804 777.559704 1017.749656
-1794.460398 776.940967 1018.930882
-1795.950992 776.322230 1020.112107
-1797.441586 775.703492 1021.293333
-1798.932180 775.084755 1022.474558
-1800.422775 774.466018 1023.655784
-1801.913369 773.847281 1024.837009
-1803.403963 773.228544 1026.018235
-1804.894557 772.609807 1027.199460
-1806.385151 771.991069 1028.380686
-1807.875745 771.372332 1029.561911
-1809.366339 770.753595 1030.743137
-1810.856933 770.134858 1031.924362
-1812.347527 769.516121 1033.105587
-1813.838121 768.897384 1034.286813
-1816.000000 768.000000 1036.000000
-1816.947404 766.238630 1036.000000
-1817.894808 764.477259 1036.000000
-1818.842211 762.715889 1036.000000
-1819.789615 760.954518 1036.000000
-1820.737019 759.193148 1036.000000
-1821.684423 757.431777 1036.000000
-1822.631827 755.670407 1036.000000
-1823.579231 753.909036 1036.000000
-1824.526634 752.147666 1036.000000
-1825.474038 750.386295 1036.000000
-1826.421442 748.624925 1036.000000
-1827.368846 746.863554 1036.000000
-1828.316250 745.102184 1036.000000
-1829.263654 743.340813 1036.000000
-1830.211057 741.579443 1036.000000
-1831.158461 739.818072 1036.000000
-1832.105865 738.056702 1036.000000
-1833.053269 736.295331 1036.000000
-1834.000673 734.533961 1036.000000
-1834.948076 732.772590 1036.000000
-1835.895480 731.011220 1036.000000
-1836.842884 729.249849 1036.000000
-1837.790288 727.488479 1036.000000
-1838.737692 725.727108 1036.000000
-1839.685096 723.965738 1036.000000
-1840.632499 722.204367 1036.000000
-1841.579903 720.442997 1036.000000
-1842.527307 718.681626 1036.000000
-1843.474711 716.920256 1036.000000
-1844.422115 715.158885 1036.000000
-1845.369519 713.397515 1036.000000
-1846.316922 711.636144 1036.000000
-1847.264326 709.874774 1036.000000
-1848.211730 708.113403 1036.000000
-1849.159134 706.352033 1036.000000
-1850.106538 704.590662 1036.000000
-1851.053941 702.829292 1036.000000
-1852.001345 701.067921 1036.000000
-1852.948749 699.306551 1036.000000
-1853.896153 697.545180 1036.000000
-1854.843557 695.783810 1036.000000
-1855.790961 694.022440 1036.000000
-1856.738364 692.261069 1036.000000
-1857.685768 690.499699 1036.000000
-1858.633172 688.738328 1036.000000
-1859.580576 686.976958 1036.000000
-1860.527980 685.215587 1036.000000
-1861.475384 683.454217 1036.000000
-1862.422787 681.692846 1036.000000
-1863.370191 679.931476 1036.000000
-1864.317595 678.170105 1036.000000
-1865.264999 676.408735 1036.000000
-1866.212403 674.647364 1036.000000
-1867.159806 672.885994 1036.000000
-1868.107210 671.124623 1036.000000
-1869.054614 669.363253 1036.000000
-1870.002018 667.601882 1036.000000
-1870.949422 665.840512 1036.000000
-1871.896826 664.079141 1036.000000
-1872.844229 662.317771 1036.000000
-1873.791633 660.556400 1036.000000
-1874.739037 658.795030 1036.000000
-1875.686441 657.033659 1036.000000
-1876.633845 655.272289 1036.000000
-1877.581249 653.510918 1036.000000
-1878.528652 651.749548 1036.000000
-1879.476056 649.988177 1036.000000
-1880.423460 648.226807 1036.000000
-1881.370864 646.465436 1036.000000
-1882.318268 644.704066 1036.000000
-1883.265671 642.942695 1036.000000
-1884.213075 641.181325 1036.000000
-1885.160479 639.419954 1036.000000
-1886.107883 637.658584 1036.000000
-1887.055287 635.897213 1036.000000
-1888.002691 634.135843 1036.000000
-1888.950094 632.374472 1036.000000
-1889.897498 630.613102 1036.000000
-1890.844902 628.851731 1036.000000
-1891.792306 627.090361 1036.000000
-1892.739710 625.328990 1036.000000
-1893.687113 623.567620 1036.000000
-1894.634517 621.806249 1036.000000
-1895.581921 620.044879 1036.000000
-1896.529325 618.283509 1036.000000
-1897.476729 616.522138 1036.000000
-1898.424133 614.760768 1036.000000
-1899.371536 612.999397 1036.000000
-1900.318940 611.238027 1036.000000
-1901.266344 609.476656 1036.000000
-1902.213748 607.715286 1036.000000
-1903.161152 605.953915 1036.000000
-1904.108556 604.192545 1036.000000
-1905.055959 602.431174 1036.000000
-1906.003363 600.669804 1036.000000
-1906.950767 598.908433 1036.000000
-1907.898171 597.147063 1036.000000
-1908.845575 595.385692 1036.000000
-1909.792978 593.624322 1036.000000
-1910.740382 591.862951 1036.000000
-1911.687786 590.101581 1036.000000
-1912.635190 588.340210 1036.000000
-1913.582594 586.578840 1036.000000
-1914.529998 584.817469 1036.000000
-1915.477401 583.056099 1036.000000
-1916.424805 581.294728 1036.000000
-1917.372209 579.533358 1036.000000
-1918.319613 577.771987 1036.000000
-1919.267017 576.010617 1036.000000
-1920.214421 574.249246 1036.000000
-1921.161824 572.487876 1036.000000
-1922.109228 570.726505 1036.000000
-1923.056632 568.965135 1036.000000
-1924.004036 567.203764 1036.000000
-1924.951440 565.442394 1036.000000
-1925.898843 563.681023 1036.000000
-1926.846247 561.919653 1036.000000
-1927.793651 560.158282 1036.000000
-1928.741055 558.396912 1036.000000
-1929.688459 556.635541 1036.000000
-1930.635863 554.874171 1036.000000
-1931.583266 553.112800 1036.000000
-1932.530670 551.351430 1036.000000
-1933.478074 549.590059 1036.000000
-1934.425478 547.828689 1036.000000
-1935.372882 546.067319 1036.000000
-1936.320286 544.305948 1036.000000
-1937.267689 542.544578 1036.000000
-1938.215093 540.783207 1036.000000
-1939.162497 539.021837 1036.000000
-1940.109901 537.260466 1036.000000
-1941.057305 535.499096 1036.000000
-1942.004708 533.737725 1036.000000
-1942.952112 531.976355 1036.000000
-1943.899516 530.214984 1036.000000
-1944.846920 528.453614 1036.000000
-1945.794324 526.692243 1036.000000
-1946.741728 524.930873 1036.000000
-1947.689131 523.169502 1036.000000
-1948.636535 521.408132 1036.000000
-1949.583939 519.646761 1036.000000
-1950.531343 517.885391 1036.000000
-1951.478747 516.124020 1036.000000
-1952.426151 514.362650 1036.000000
-1953.373554 512.601279 1036.000000
-1954.320958 510.839909 1036.000000
-1955.268362 509.078538 1036.000000
-1956.215766 507.317168 1036.000000
-1957.163170 505.555797 1036.000000
-1958.110573 503.794427 1036.000000
-1959.057977 502.033056 1036.000000
-1960.005381 500.271686 1036.000000
-1960.952785 498.510315 1036.000000
-1961.900189 496.748945 1036.000000
-1962.847593 494.987574 1036.000000
-1963.794996 493.226204 1036.000000
-1964.742400 491.464833 1036.000000
-1965.689804 489.703463 1036.000000
-1966.637208 487.942092 1036.000000
-1967.584612 486.180722 1036.000000
-1968.532016 484.419351 1036.000000
-1969.479419 482.657981 1036.000000
-1970.426823 480.896610 1036.000000
-1971.374227 479.135240 1036.000000
-1972.321631 477.373869 1036.000000
-1973.269035 475.612499 1036.000000
-1974.216438 473.851129 1036.000000
-1975.163842 472.089758 1036.000000
-1976.111246 470.328388 1036.000000
-1977.058650 468.567017 1036.000000
-1978.006054 466.805647 1036.000000
-1978.953458 465.044276 1036.000000
-1979.900861 463.282906 1036.000000
-1980.848265 461.521535 1036.000000
-1981.795669 459.760165 1036.000000
-1982.743073 457.998794 1036.000000
-1983.690477 456.237424 1036.000000
-1984.637881 454.476053 1036.000000
-1985.585284 452.714683 1036.000000
-1986.532688 450.953312 1036.000000
-1987.480092 449.191942 1036.000000
-1988.427496 447.430571 1036.000000
-1989.374900 445.669201 1036.000000
-1990.322303 443.907830 1036.000000
-1991.269707 442.146460 1036.000000
-1992.217111 440.385089 1036.000000
-1993.164515 438.623719 1036.000000
-1994.111919 436.862348 1036.000000
-1995.059323 435.100978 1036.000000
-1996.006726 433.339607 1036.000000
-1996.954130 431.578237 1036.000000
-1997.901534 429.816866 1036.000000
-1998.848938 428.055496 1036.000000
-1999.796342 426.294125 1036.000000
-2000.743746 424.532755 1036.000000
-2001.691149 422.771384 1036.000000
-2002.638553 421.010014 1036.000000
-2003.585957 419.248643 1036.000000
-2004.533361 417.487273 1036.000000
-2005.480765 415.725902 1036.000000
-2006.428168 413.964532 1036.000000
-2007.375572 412.203161 1036.000000
-2008.322976 410.441791 1036.000000
-2009.270380 408.680420 1036.000000
-2010.217784 406.919050 1036.000000
-2011.165188 405.157679 1036.000000
-2012.112591 403.396309 1036.000000
-2013.059995 401.634938 1036.000000
-2014.007399 399.873568 1036.000000
-2014.954803 398.112198 1036.000000
-2015.902207 396.350827 1036.000000
-2016.849610 394.589457 1036.000000
-2017.797014 392.828086 1036.000000
-2018.744418 391.066716 1036.000000
-2019.691822 389.305345 1036.000000
-2020.639226 387.543975 1036.000000
-2021.586630 385.782604 1036.000000
-2022.534033 384.021234 1036.000000
-2023.481437 382.259863 1036.000000
-2024.428841 380.498493 1036.000000
-2025.376245 378.737122 1036.000000
-2026.323649 376.975752 1036.000000
-2027.271053 375.214381 1036.000000
-2028.218456 373.453011 1036.000000
-2029.165860 371.691640 1036.000000
-2030.113264 369.930270 1036.000000
-2031.060668 368.168899 1036.000000
-2032.008072 366.407529 1036.000000
-2032.955475 364.646158 1036.000000
-2033.902879 362.884788 1036.000000
-2034.850283 361.123417 1036.000000
-2035.797687 359.362047 1036.000000
-2036.745091 357.600676 1036.000000
-2037.692495 355.839306 1036.000000
-2038.639898 354.077935 1036.000000
-2039.587302 352.316565 1036.000000
-2040.534706 350.555194 1036.000000
-2041.482110 348.793824 1036.000000
-2042.429514 347.032453 1036.000000
-2043.376918 345.271083 1036.000000
-2044.324321 343.509712 1036.000000
-2045.271725 341.748342 1036.000000
-2046.219129 339.986971 1036.000000
-2047.166533 338.225601 1036.000000
-2048.113937 336.464230 1036.000000
-2049.061340 334.702860 1036.000000
-2050.008744 332.941489 1036.000000
-2050.956148 331.180119 1036.000000
-2051.903552 329.418748 1036.000000
-2052.850956 327.657378 1036.000000
-2053.798360 325.896008 1036.000000
-2054.745763 324.134637 1036.000000
-2055.693167 322.373267 1036.000000
-2056.640571 320.611896 1036.000000
-2057.587975 318.850526 1036.000000
-2058.535379 317.089155 1036.000000
-2059.482783 315.327785 1036.000000
-2060.430186 313.566414 1036.000000
-2061.377590 311.805044 1036.000000
-2062.324994 310.043673 1036.000000
-2063.272398 308.282303 1036.000000
-2064.219802 306.520932 1036.000000
-2065.167205 304.759562 1036.000000
-2066.114609 302.998191 1036.000000
-2067.062013 301.236821 1036.000000
-2068.009417 299.475450 1036.000000
-2068.956821 297.714080 1036.000000
-2069.904225 295.952709 1036.000000
-2070.851628 294.191339 1036.000000
-2071.799032 292.429968 1036.000000
-2072.746436 290.668598 1036.000000
-2073.693840 288.907227 1036.000000
-2074.641244 287.145857 1036.000000
-2075.588648 285.384486 1036.000000
-2076.536051 283.623116 1036.000000
-2077.483455 281.861745 1036.000000
-2078.430859 280.100375 1036.000000
-2079.378263 278.339004 1036.000000
-2080.325667 276.577634 1036.000000
-2081.273070 274.816263 1036.000000
-2082.220474 273.054893 1036.000000
-2083.167878 271.293522 1036.000000
-2084.115282 269.532152 1036.000000
-2085.062686 267.770781 1036.000000
-2086.010090 266.009411 1036.000000
-2086.957493 264.248040 1036.000000
-2087.904897 262.486670 1036.000000
-2088.852301 260.725299 1036.000000
-2089.799705 258.963929 1036.000000
-2090.747109 257.202558 1036.000000
-2091.694513 255.441188 1036.000000
-2092.641916 253.679818 1036.000000
-2093.589320 251.918447 1036.000000
-2094.536724 250.157077 1036.000000
-2095.484128 248.395706 1036.000000
-2096.431532 246.634336 1036.000000
-2097.378935 244.872965 1036.000000
-2098.326339 243.111595 1036.000000
-2100.000000 240.000000 1036.000000
-2100.000000 238.706517 1034.474582
-2100.000000 237.413033 1032.949163
-2100.000000 236.119550 1031.423745
-2100.000000 234.826067 1029.898327
-2100.000000 233.532583 1028.372909
-2100.000000 232.239100 1026.847490
-2100.000000 230.945617 1025.322072
-2100.000000 229.652133 1023.796654
-2100.000000 228.358650 1022.271236
-2100.000000 227.065167 1020.745817
-2100.000000 225.771683 1019.220399
-2100.000000 224.478200 1017.694981
-2100.000000 223.184717 1016.169563
-2100.000000 221.891233 1014.644144
-2100.000000 220.597750 1013.118726
-2100.000000 219.304267 1011.593308
-2100.000000 218.010783 1010.067889
-2100.000000 216.717300 1008.542471
-2100.000000 215.423817 1007.017053
-2100.000000 214.130333 1005.491635
-2100.000000 212.836850 1003.966216
-2100.000000 211.543367 1002.440798
-2100.000000 210.249884 1000.915380
-2100.000000 208.956400 999.389962
-2100.000000 207.662917 997.864543
-2100.000000 206.369434 996.339125
-2100.000000 205.075950 994.813707
-2100.000000 203.782467 993.288289
-2100.000000 202.488984 991.762870
-2100.000000 201.195500 990.237452
-2100.000000 199.902017 988.712034
-2100.000000 198.608534 987.186615
-2100.000000 197.315050 985.661197
-2100.000000 196.021567 984.135779
-2100.000000 194.728084 982.610361
-2100.000000 193.434600 981.084942
-2100.000000 192.141117 979.559524
-2100.000000 190.847634 978.034106
-2100.000000 189.554150 976.508688
-2100.000000 188.260667 974.983269
-2100.000000 186.967184 973.457851
-2100.000000 185.673700 971.932433
-2100.000000 184.380217 970.407015
-2100.000000 183.086734 968.881596
-2100.000000 181.793250 967.356178
-2100.000000 180.499767 965.830760
-2100.000000 179.206284 964.305341
-2100.000000 177.912800 962.779923
-2100.000000 176.619317 961.254505
-2100.000000 175.325834 959.729087
-2100.000000 174.032350 958.203668
-2100.000000 172.738867 956.678250
-2100.000000 171.445384 955.152832
-2100.000000 170.151900 953.627414
-2100.000000 168.858417 952.101995
-2100.000000 167.564934 950.576577
-2100.000000 166.271450 949.051159
-2100.000000 164.977967 947.525741
-2100.000000 163.684484 946.000322
-2100.000000 162.391000 944.474904
-2100.000000 161.097517 942.949486
-2100.000000 159.804034 941.424067
-2100.000000 158.510551 939.898649
-2100.000000 157.217067 938.373231
-2100.000000 155.923584 936.847813
-2100.000000 154.630101 935.322394
-2100.000000 153.336617 933.796976
-2100.000000 152.043134 932.271558
-2100.000000 150.749651 930.746140
-2100.000000 149.456167 929.220721
-2100.000000 148.162684 927.695303
-2100.000000 146.869201 926.169885
-2100.000000 145.575717 924.644467
-2100.000000 144.282234 923.119048
-2100.000000 142.988751 921.593630
-2100.000000 141.695267 920.068212
-2100.000000 140.401784 918.542793
-2100.000000 139.108301 917.017375
-2100.000000 137.814817 915.491957
-2100.000000 136.521334 913.966539
-2100.000000 135.227851 912.441120
-2100.000000 133.934367 910.915702
-2100.000000 132.640884 909.390284
-2100.000000 131.347401 907.864866
-2100.000000 130.053917 906.339447
-2100.000000 128.760434 904.814029
-2100.000000 127.466951 903.288611
-2100.000000 126.173467 901.763193
-2100.000000 124.879984 900.237774
-2100.000000 123.586501 898.712356
-2100.000000 122.293017 897.186938
-2100.000000 120.999534 895.661519
-2100.000000 119.706051 894.136101
-2100.000000 118.412567 892.610683
-2100.000000 117.119084 891.085265
-2100.000000 115.825601 889.559846
-2100.000000 114.532117 888.034428
-2100.000000 113.238634 886.509010
-2100.000000 111.945151 884.983592
-2100.000000 110.651667 883.458173
-2100.000000 109.358184 881.932755
-2100.000000 108.064701 880.407337
-2100.000000 106.771217 878.881919
-2100.000000 105.477734 877.356500
-2100.000000 104.184251 875.831082
-2100.000000 102.890768 874.305664
-2100.000000 101.597284 872.780246
-2100.000000 100.303801 871.254827
-2100.000000 99.010318 869.729409
-2100.000000 97.716834 868.203991
-2100.000000 96.423351 866.678572
-2100.000000 95.129868 865.153154
-2100.000000 93.836384 863.627736
-2100.000000 92.542901 862.102318
-2100.000000 91.249418 860.576899
-2100.000000 89.955934 859.051481
-2100.000000 88.662451 857.526063
-2100.000000 87.368968 856.000645
-2100.000000 86.075484 854.475226
-2100.000000 84.782001 852.949808
-2100.000000 83.488518 851.424390
-2100.000000 82.195034 849.898972
-2100.000000 80.901551 848.373553
-2100.000000 79.608068 846.848135
-2100.000000 78.314584 845.322717
-2100.000000 77.021101 843.797298
-2100.000000 75.727618 842.271880
-2100.000000 74.434134 840.746462
-2100.000000 73.140651 839.221044
-2100.000000 71.847168 837.695625
-2100.000000 70.553684 836.170207
-2100.000000 69.260201 834.644789
-2100.000000 67.966718 833.119371
-2100.000000 66.673234 831.593952
-2100.000000 65.379751 830.068534
-2100.000000 64.086268 828.543116
-2100.000000 62.792784 827.017698
-2100.000000 61.499301 825.492279
-2100.000000 60.205818 823.966861
-2100.000000 58.912334 822.441443
-2100.000000 57.618851 820.916024
-2100.000000 56.325368 819.390606
-2100.000000 55.031884 817.865188
-2100.000000 53.738401 816.339770
-2100.000000 52.444918 814.814351
-2100.000000 51.151435 813.288933
-2100.000000 49.857951 811.763515
-2100.000000 48.564468 810.238097
-2100.000000 47.270985 808.712678
-2100.000000 45.977501 807.187260
-2100.000000 44.684018 805.661842
-2100.000000 43.390535 804.136424
-2100.000000 42.097051 802.611005
-2100.000000 40.803568 801.085587
-2100.000000 39.510085 799.560169
-2100.000000 38.216601 798.034750
-2100.000000 36.923118 796.509332
-2100.000000 35.629635 794.983914
-2100.000000 34.336151 793.458496
-2100.000000 33.042668 791.933077
-2100.000000 31.749185 790.407659
-2100.000000 30.455701 788.882241
-2100.000000 29.162218 787.356823
-2100.000000 27.868735 785.831404
-2100.000000 26.575251 784.305986
-2100.000000 25.281768 782.780568
-2100.000000 23.988285 781.255150
-2100.000000 22.694801 779.729731
-2100.000000 21.401318 778.204313
-2100.000000 20.107835 776.678895
-2100.000000 18.814351 775.153476
-2100.000000 17.520868 773.628058
-2100.000000 16.227385 772.102640
-2100.000000 14.933901 770.577222
-2100.000000 13.640418 769.051803
-2100.000000 12.346935 767.526385
-2100.000000 11.053451 766.000967
-2100.000000 9.759968 764.475549
-2100.000000 8.466485 762.950130
-2100.000000 7.173001 761.424712
-2100.000000 5.879518 759.899294
-2100.000000 4.586035 758.373876
-2100.000000 3.292551 756.848457
-2100.000000 1.999068 755.323039
-2100.000000 0.705585 753.797621
-2100.000000 -0.587898 752.272202
-2100.000000 -1.881382 750.746784
-2100.000000 -3.174865 749.221366
-2100.000000 -4.468348 747.695948
-2100.000000 -5.761832 746.170529
-2100.000000 -7.055315 744.645111
-2100.000000 -8.348798 743.119693
-2100.000000 -9.642282 741.594275
-2100.000000 -10.935765 740.068856
-2100.000000 -12.229248 738.543438
-2100.000000 -13.522732 737.018020
-2100.000000 -14.816215 735.492602
-2100.000000 -16.109698 733.967183
-2100.000000 -17.403182 732.441765
-2100.000000 -18.696665 730.916347
-2100.000000 -19.990148 729.390928
-2100.000000 -21.283632 727.865510
-2100.000000 -22.577115 726.340092
-2100.000000 -23.870598 724.814674
-2100.000000 -25.164082 723.289255
-2100.000000 -26.457565 721.763837
-2100.000000 -27.751048 720.238419
-2100.000000 -29.044532 718.713001
-2100.000000 -30.338015 717.187582
-2100.000000 -31.631498 715.662164
-2100.000000 -32.924982 714.136746
-2100.000000 -34.218465 712.611328
-2100.000000 -35.511948 711.085909
-2100.000000 -36.805432 709.560491
-2100.000000 -38.098915 708.035073
-2100.000000 -39.392398 706.509654
-2100.000000 -40.685882 704.984236
-2100.000000 -41.979365 703.458818
-2100.000000 -43.272848 701.933400
-2100.000000 -44.566332 700.407981
-2100.000000 -45.859815 698.882563
-2100.000000 -47.153298 697.357145
-2100.000000 -48.446782 695.831727
-2100.000000 -49.740265 694.306308
-2100.000000 -51.033748 692.780890
-2100.000000 -52.327232 691.255472
-2100.000000 -53.620715 689.730054
-2100.000000 -54.914198 688.204635
-2100.000000 -56.207681 686.679217
-2100.000000 -57.501165 685.153799
-2100.000000 -58.794648 683.628380
-2100.000000 -60.088131 682.102962
-2100.000000 -61.381615 680.577544
-2100.000000 -62.675098 679.052126
-2100.000000 -63.968581 677.526707
-2100.000000 -65.262065 676.001289
-2100.000000 -66.555548 674.475871
-2100.000000 -67.849031 672.950453
-2100.000000 -69.142515 671.425034
-2100.000000 -70.435998 669.899616
-2100.000000 -71.729481 668.374198
-2100.000000 -73.022965 666.848780
-2100.000000 -74.316448 665.323361
-2100.000000 -75.609931 663.797943
-2100.000000 -76.903415 662.272525
-2100.000000 -78.196898 660.747106
-2100.000000 -79.490381 659.221688
-2100.000000 -80.783865 657.696270
-2100.000000 -82.077348 656.170852
-2100.000000 -83.370831 654.645433
-2100.000000 -84.664315 653.120015
-2100.000000 -85.957798 651.594597
-2100.000000 -87.251281 650.069179
-2100.000000 -88.544765 648.543760
-2100.000000 -89.838248 647.018342
-2100.000000 -91.131731 645.492924
-2100.000000 -92.425215 643.967506
-2100.000000 -93.718698 642.442087
-2100.000000 -95.012181 640.916669
-2100.000000 -96.305665 639.391251
-2100.000000 -97.599148 637.865832
-2100.000000 -98.892631 636.340414
-2100.000000 -100.186115 634.814996
-2100.000000 -101.479598 633.289578
-2100.000000 -102.773081 631.764159
-2100.000000 -104.066565 630.238741
-2100.000000 -105.360048 628.713323
-2100.000000 -106.653531 627.187905
-2100.000000 -107.947014 625.662486
-2100.000000 -109.240498 624.137068
-2100.000000 -110.533981 622.611650
-2100.000000 -111.827464 621.086232
-2100.000000 -113.120948 619.560813
-2100.000000 -114.414431 618.035395
-2100.000000 -115.707914 616.509977
-2100.000000 -117.001398 614.984558
-2100.000000 -118.294881 613.459140
-2100.000000 -119.588364 611.933722
-2100.000000 -120.881848 610.408304
-2100.000000 -122.175331 608.882885
-2100.000000 -123.468814 607.357467
-2100.000000 -124.762298 605.832049
-2100.000000 -126.055781 604.306631
-2100.000000 -127.349264 602.781212
-2100.000000 -128.642748 601.255794
-2100.000000 -129.936231 599.730376
-2100.000000 -131.229714 598.204958
-2100.000000 -132.523198 596.679539
-2100.000000 -133.816681 595.154121
-2100.000000 -135.110164 593.628703
-2100.000000 -136.403648 592.103284
-2100.000000 -137.697131 590.577866
-2100.000000 -138.990614 589.052448
-2100.000000 -140.284098 587.527030
-2100.000000 -141.577581 586.001611
-2100.000000 -142.871064 584.476193
-2100.000000 -144.164548 582.950775
-2100.000000 -145.458031 581.425357
-2100.000000 -146.751514 579.899938
-2100.000000 -148.044998 578.374520
-2100.000000 -149.338481 576.849102
-2100.000000 -150.631964 575.323684
-2100.000000 -151.925448 573.798265
-2100.000000 -153.218931 572.272847
-2100.000000 -154.512414 570.747429
-2100.000000 -155.805898 569.222011
-2100.000000 -157.099381 567.696592
-2100.000000 -158.392864 566.171174
-2100.000000 -159.686348 564.645756
-2100.000000 -160.979831 563.120337
-2100.000000 -162.273314 561.594919
-2100.000000 -163.566797 560.069501
-2100.000000 -164.860281 558.544083
-2100.000000 -166.153764 557.018664
-2100.000000 -167.447247 555.493246
-2100.000000 -168.740731 553.967828
-2100.000000 -170.034214 552.442410
-2100.000000 -171.327697 550.916991
-2100.000000 -172.621181 549.391573
-2100.000000 -173.914664 547.866155
-2100.000000 -175.208147 546.340737
-2100.000000 -176.501631 544.815318
-2100.000000 -177.795114 543.289900
-2100.000000 -179.088597 541.764482
-2100.000000 -180.382081 540.239063
-2100.000000 -181.675564 538.713645
-2100.000000 -182.969047 537.188227
-2100.000000 -184.262531 535.662809
-2100.000000 -185.556014 534.137390
-2100.000000 -186.849497 532.611972
-2100.000000 -188.142981 531.086554
-2100.000000 -189.436464 529.561136
-2100.000000 -190.729947 528.035717
-2100.000000 -192.023431 526.510299
-2100.000000 -193.316914 524.984881
-2100.000000 -194.610397 523.459463
-2100.000000 -195.903881 521.934044
-2100.000000 -197.197364 520.408626
-2100.000000 -198.490847 518.883208
-2100.000000 -199.784331 517.357789
-2100.000000 -201.077814 515.832371
-2100.000000 -202.371297 514.306953
-2100.000000 -203.664781 512.781535
-2100.000000 -204.958264 511.256116
-2100.000000 -206.251747 509.730698
-2100.000000 -207.545231 508.205280
-2100.000000 -208.838714 506.679862
-2100.000000 -210.132197 505.154443
-2100.000000 -211.425681 503.629025
-2100.000000 -212.719164 502.103607
-2100.000000 -214.012647 500.578189
-2100.000000 -215.306130 499.052770
-2100.000000 -216.599614 497.527352
-2100.000000 -217.893097 496.001934
-2100.000000 -219.186580 494.476515
-2100.000000 -220.480064 492.951097
-2100.000000 -221.773547 491.425679
-2100.000000 -223.067030 489.900261
-2100.000000 -224.360514 488.374842
-2100.000000 -225.653997 486.849424
-2100.000000 -226.947480 485.324006
-2100.000000 -228.240964 483.798588
-2100.000000 -229.534447 482.273169
-2100.000000 -230.827930 480.747751
-2100.000000 -232.121414 479.222333
-2100.000000 -233.414897 477.696915
-2100.000000 -234.708380 476.171496
-2100.000000 -236.001864 474.646078
-2100.000000 -237.295347 473.120660
-2100.000000 -238.588830 471.595241
-2100.000000 -239.882314 470.069823
-2100.000000 -241.175797 468.544405
-2100.000000 -242.469280 467.018987
-2100.000000 -243.762764 465.493568
-2100.000000 -245.056247 463.968150
-2100.000000 -246.349730 462.442732
-2100.000000 -247.643214 460.917314
-2100.000000 -248.936697 459.391895
-2100.000000 -250.230180 457.866477
-2100.000000 -251.523664 456.341059
-2100.000000 -252.817147 454.815641
-2100.000000 -254.110630 453.290222
-2100.000000 -255.404114 451.764804
-2100.000000 -256.697597 450.239386
-2100.000000 -257.991080 448.713967
-2100.000000 -259.284564 447.188549
-2100.000000 -260.578047 445.663131
-2100.000000 -261.871530 444.137713
-2100.000000 -263.165014 442.612294
-2100.000000 -264.458497 441.086876
-2100.000000 -265.751980 439.561458
-2100.000000 -267.045464 438.036040
-2100.000000 -268.338947 436.510621
-2100.000000 -269.632430 434.985203
-2100.000000 -270.925913 433.459785
-2100.000000 -272.219397 431.934367
-2100.000000 -273.512880 430.408948
-2100.000000 -274.806363 428.883530
-2100.000000 -276.099847 427.358112
-2100.000000 -277.393330 425.832693
-2100.000000 -278.686813 424.307275
-2100.000000 -279.980297 422.781857
-2100.000000 -281.273780 421.256439
-2100.000000 -282.567263 419.731020
-2100.000000 -283.860747 418.205602
-2100.000000 -285.154230 416.680184
-2100.000000 -286.447713 415.154766
-2100.000000 -287.741197 413.629347
-2100.000000 -289.034680 412.103929
-2100.000000 -290.328163 410.578511
-2100.000000 -291.621647 409.053093
-2100.000000 -292.915130 407.527674
-2100.000000 -294.208613 406.002256
-2100.000000 -295.502097 404.476838
-2100.000000 -296.795580 402.951419
-2100.000000 -298.089063 401.426001
-2100.000000 -299.382547 399.900583
-2100.000000 -300.676030 398.375165
-2100.000000 -301.969513 396.849746
-2100.000000 -303.262997 395.324328
-2100.000000 -304.556480 393.798910
-2100.000000 -305.849963 392.273492
-2100.000000 -307.143447 390.748073
-2100.000000 -308.436930 389.222655
-2100.000000 -309.730413 387.697237
-2100.000000 -311.023897 386.171819
-2100.000000 -312.317380 384.646400
-2100.000000 -313.610863 383.120982
-2100.000000 -314.904347 381.595564
-2100.000000 -316.197830 380.070145
-2100.000000 -317.491313 378.544727
-2100.000000 -318.784797 377.019309
-2100.000000 -320.078280 375.493891
-2100.000000 -321.371763 373.968472
-2100.000000 -322.665246 372.443054
-2100.000000 -323.958730 370.917636
-2100.000000 -325.252213 369.392218
-2100.000000 -326.545696 367.866799
-2100.000000 -327.839180 366.341381
-2100.000000 -329.132663 364.815963
-2100.000000 -330.426146 363.290545
-2100.000000 -331.719630 361.765126
-2100.000000 -333.013113 360.239708
-2100.000000 -334.306596 358.714290
-2100.000000 -335.600080 357.188871
-2100.000000 -336.893563 355.663453
-2100.000000 -338.187046 354.138035
-2100.000000 -340.000000 352.000000
-2098.336883 -340.950353 351.424787
-2096.673765 -341.900705 350.849573
-2095.010648 -342.851058 350.274360
-2093.347531 -343.801411 349.699146
-2091.684414 -344.751764 349.123933
-2090.021296 -345.702116 348.548719
-2088.358179 -346.652469 347.973506
-2086.695062 -347.602822 347.398292
-2085.031944 -348.553175 346.823079
-2083.368827 -349.503527 346.247865
-2081.705710 -350.453880 345.672652
-2080.042593 -351.404233 345.097438
-2078.379475 -352.354586 344.522225
-2076.716358 -353.304938 343.947011
-2075.053241 -354.255291 343.371798
-2073.390123 -355.205644 342.796584
-2071.727006 -356.155997 342.221371
-2070.063889 -357.106349 341.646157
-2068.400772 -358.056702 341.070944
-2066.737654 -359.007055 340.495730
-2065.074537 -359.957407 339.920517
-2063.411420 -360.907760 339.345303
-2061.748302 -361.858113 338.770090
-2060.085185 -362.808466 338.194876
-2058.422068 -363.758818 337.619663
-2056.758951 -364.709171 337.044449
-2055.095833 -365.659524 336.469236
-2053.432716 -366.609877 335.894022
-2051.769599 -367.560229 335.318809
-2050.106481 -368.510582 334.743595
-2048.443364 -369.460935 334.168382
-2046.780247 -370.411288 333.593168
-2045.117130 -371.361640 333.017955
-2043.454012 -372.311993 332.442741
-2041.790895 -373.262346 331.867528
-2040.127778 -374.212698 331.292314
-2038.464660 -375.163051 330.717101
-2036.801543 -376.113404 330.141887
-2035.138426 -377.063757 329.566674
-2033.475309 -378.014109 328.991460
-2031.812191 -378.964462 328.416247
-2030.149074 -379.914815 327.841033
-2028.485957 -380.865168 327.265820
-2026.822839 -381.815520 326.690606
-2025.159722 -382.765873 326.115393
-2023.496605 -383.716226 325.540179
-2021.833488 -384.666579 324.964966
-2020.170370 -385.616931 324.389752
-2018.507253 -386.567284 323.814539
-2016.844136 -387.517637 323.239325
-2015.181018 -388.467990 322.664112
-2013.517901 -389.418342 322.088898
-2011.854784 -390.368695 321.513685
-2010.191667 -391.319048 320.938471
-2008.528549 -392.269400 320.363258
-2006.865432 -393.219753 319.788044
-2005.202315 -394.170106 319.212831
-2003.539197 -395.120459 318.637617
-2001.876080 -396.070811 318.062404
-2000.212963 -397.021164 317.487190
-1998.549845 -397.971517 316.911977
-1996.886728 -398.921870 316.336763
-1995.223611 -399.872222 315.761550
-1993.560494 -400.822575 315.186336
-1991.897376 -401.772928 314.611123
-1990.234259 -402.723281 314.035909
-1988.571142 -403.673633 313.460696
-1986.908024 -404.623986 312.885482
-1985.244907 -405.574339 312.310269
-1983.581790 -406.524691 311.735055
-1981.918673 -407.475044 311.159842
-1980.255555 -408.425397 310.584628
-1978.592438 -409.375750 310.009415
-1976.929321 -410.326102 309.434201
-1975.266203 -411.276455 308.858988
-1973.603086 -412.226808 308.283774
-1971.939969 -413.177161 307.708561
-1970.276852 -414.127513 307.133347
-1968.613734 -415.077866 306.558134
-1966.950617 -416.028219 305.982920
-1965.287500 -416.978572 305.407707
-1963.624382 -417.928924 304.832493
-1961.961265 -418.879277 304.257280
-1960.298148 -419.829630 303.682066
-1958.635031 -420.779983 303.106853
-1956.971913 -421.730335 302.531639
-1955.308796 -422.680688 301.956426
-1953.645679 -423.631041 301.381212
-1951.982561 -424.581393 300.805999
-1950.319444 -425.531746 300.230785
-1948.656327 -426.482099 299.655572
-1946.993210 -427.432452 299.080358
-1945.330092 -428.382804 298.505145
-1943.666975 -429.333157 297.929931
-1942.003858 -430.283510 297.354718
-1940.340740 -431.233863 296.779504
-1938.677623 -432.184215 296.204291
-1937.014506 -433.134568 295.629077
-1935.351389 -434.084921 295.053864
-1933.688271 -435.035274 294.478650
-1932.025154 -435.985626 293.903437
-1930.362037 -436.935979 293.328223
-1928.698919 -437.886332 292.753010
-1927.035802 -438.836684 292.177796
-1925.372685 -439.787037 291.602583
-1923.709568 -440.737390 291.027369
-1922.046450 -441.687743 290.452156
-1920.383333 -442.638095 289.876942
-1918.720216 -443.588448 289.301729
-1917.057098 -444.538801 288.726515
-1915.393981 -445.489154 288.151302
-1913.730864 -446.439506 287.576088
-1912.067747 -447.389859 287.000875
-1910.404629 -448.340212 286.425661
-1908.741512 -449.290565 285.850448
-1907.078395 -450.240917 285.275234
-1905.415277 -451.191270 284.700021
-1903.752160 -452.141623 284.124807
-1902.089043 -453.091976 283.549594
-1900.425926 -454.042328 282.974380
-1898.762808 -454.992681 282.399167
-1897.099691 -455.943034 281.823953
-1895.436574 -456.893386 281.248740
-1893.773456 -457.843739 280.673526
-1892.110339 -458.794092 280.098313
-1890.447222 -459.744445 279.523099
-1888.784105 -460.694797 278.947886
-1887.120987 -461.645150 278.372672
-1885.457870 -462.595503 277.797459
-1883.794753 -463.545856 277.222245
-1882.131635 -464.496208 276.647032
-1880.468518 -465.446561 276.071818
-1878.805401 -466.396914 275.496605
-1877.142284 -467.347267 274.921391
-1875.479166 -468.297619 274.346178
-1873.816049 -469.247972 273.770964
-1872.152932 -470.198325 273.195751
-1870.489814 -471.148677 272.620537
-1868.826697 -472.099030 272.045324
-1867.163580 -473.049383 271.470110
-1865.500463 -473.999736 270.894897
-1863.837345 -474.950088 270.319683
-1862.174228 -475.900441 269.744470
-1860.511111 -476.850794 269.169256
-1858.847993 -477.801147 268.594043
-1857.184876 -478.751499 268.018829
-1855.521759 -479.701852 267.443616
-1853.858642 -480.652205 266.868402
-1852.195524 -481.602558 266.293189
-1850.532407 -482.552910 265.717975
-1848.869290 -483.503263 265.142762
-1847.206172 -484.453616 264.567548
-1845.543055 -485.403969 263.992335
-1843.879938 -486.354321 263.417121
-1842.216821 -487.304674 262.841908
-1840.553703 -488.255027 262.266694
-1838.890586 -489.205379 261.691481
-1837.227469 -490.155732 261.116267
-1835.564351 -491.106085 260.541054
-1833.901234 -492.056438 259.965840
-1832.238117 -493.006790 259.390627
-1830.575000 -493.957143 258.815413
-1828.911882 -494.907496 258.240200
-1827.248765 -495.857849 257.664986
-1825.585648 -496.808201 257.089773
-1823.922530 -497.758554 256.514559
-1822.259413 -498.708907 255.939346
-1820.596296 -499.659260 255.364132
-1818.933178 -500.609612 254.788919
-1817.270061 -501.559965 254.213705
-1815.606944 -502.510318 253.638492
-1813.943827 -503.460670 253.063278
-1812.280709 -504.411023 252.488065
-1810.617592 -505.361376 251.912851
-1808.954475 -506.311729 251.337638
-1807.291357 -507.262081 250.762424
-1805.628240 -508.212434 250.187211
-1803.965123 -509.162787 249.611997
-1802.302006 -510.113140 249.036784
-1800.638888 -511.063492 248.461570
-1798.975771 -512.013845 247.886357
-1797.312654 -512.964198 247.311143
-1795.649536 -513.914551 246.735930
-1793.986419 -514.864903 246.160716
-1792.323302 -515.815256 245.585503
-1790.660185 -516.765609 245.010289
-1788.997067 -517.715962 244.435076
-1787.333950 -518.666314 243.859862
-1785.670833 -519.616667 243.284649
-1784.007715 -520.567020 242.709435
-1782.344598 -521.517372 242.134222
-1780.681481 -522.467725 241.559008
-1779.018364 -523.418078 240.983795
-1777.355246 -524.368431 240.408581
-1775.692129 -525.318783 239.833368
-1774.029012 -526.269136 239.258154
-1772.365894 -527.219489 238.682941
-1770.702777 -528.169842 238.107727
-1769.039660 -529.120194 237.532514
-1767.376543 -530.070547 236.957300
-1765.713425 -531.020900 236.382087
-1764.050308 -531.971253 235.806873
-1762.387191 -532.921605 235.231660
-1760.724073 -533.871958 234.656446
-1759.060956 -534.822311 234.081233
-1757.397839 -535.772663 233.506019
-1755.734722 -536.723016 232.930806
-1754.071604 -537.673369 232.355592
-1752.408487 -538.623722 231.780379
-1750.745370 -539.574074 231.205165
-1749.082252 -540.524427 230.629952
-1747.419135 -541.474780 230.054738
-1745.756018 -542.425133 229.479525
-1744.092901 -543.375485 228.904311
-1742.429783 -544.325838 228.329098
-1740.766666 -545.276191 227.753884
-1739.103549 -546.226544 227.178671
-1737.440431 -547.176896 226.603457
-1735.777314 -548.127249 226.028244
-1734.114197 -549.077602 225.453030
-1732.451080 -550.027955 224.877817
-1730.787962 -550.978307 224.302603
-1729.124845 -551.928660 223.727390
-1727.461728 -552.879013 223.152177
-1725.798610 -553.829365 222.576963
-1724.135493 -554.779718 222.001750
-1722.472376 -555.730071 221.426536
-1720.809259 -556.680424 220.851323
-1719.146141 -557.630776 220.276109
-1717.483024 -558.581129 219.700896
-1715.819907 -559.531482 219.125682
-1714.156789 -560.481835 218.550469
-1712.493672 -561.432187 217.975255
-1710.830555 -562.382540 217.400042
-1709.167438 -563.332893 216.824828
-1707.504320 -564.283246 216.249615
-1705.841203 -565.233598 215.674401
-1704.178086 -566.183951 215.099188
-1702.514968 -567.134304 214.523974
-1700.851851 -568.084657 213.948761
-1699.188734 -569.035009 213.373547
-1697.525617 -569.985362 212.798334
-1695.862499 -570.935715 212.223120
-1694.199382 -571.886067 211.647907
-1692.536265 -572.836420 211.072693
-1690.873147 -573.786773 210.497480
-1689.210030 -574.737126 209.922266
-1687.546913 -575.687478 209.347053
-1685.883796 -576.637831 208.771839
-1684.220678 -577.588184 208.196626
-1682.557561 -578.538537 207.621412
-1680.894444 -579.488889 207.046199
-1679.231326 -580.439242 206.470985
-1677.568209 -581.389595 205.895772
-1675.905092 -582.339948 205.320558
-1674.241975 -583.290300 204.745345
-1672.578857 -584.240653 204.170131
-1670.915740 -585.191006 203.594918
-1669.252623 -586.141358 203.019704
-1667.589505 -587.091711 202.444491
-1665.926388 -588.042064 201.869277
-1664.263271 -588.992417 201.294064
-1662.600154 -589.942769 200.718850
-1660.937036 -590.893122 200.143637
-1659.273919 -591.843475 199.568423
-1657.610802 -592.793828 198.993210
-1655.947684 -593.744180 198.417996
-1654.284567 -594.694533 197.842783
-1652.621450 -595.644886 197.267569
-1650.958333 -596.595239 196.692356
-1649.295215 -597.545591 196.117142
-1647.632098 -598.495944 195.541929
-1645.968981 -599.446297 194.966715
-1644.305863 -600.396650 194.391502
-1642.642746 -601.347002 193.816288
-1640.979629 -602.297355 193.241075
-1639.316512 -603.247708 192.665861
-1637.653394 -604.198060 192.090648
-1635.990277 -605.148413 191.515434
-1634.327160 -606.098766 190.940221
-1632.664042 -607.049119 190.365007
-1631.000925 -607.999471 189.789794
-1629.337808 -608.949824 189.214580
-1627.674690 -609.900177 188.639367
-1626.011573 -610.850530 188.064153
-1624.348456 -611.800882 187.488940
-1622.685339 -612.751235 186.913726
-1621.022221 -613.701588 186.338513
-1619.359104 -614.651941 185.763299
-1617.695987 -615.602293 185.188086
-1616.032869 -616.552646 184.612872
-1614.369752 -617.502999 184.037659
-1612.706635 -618.453351 183.462445
-1611.043518 -619.403704 182.887232
-1609.380400 -620.354057 182.312018
-1607.717283 -621.304410 181.736805
-1606.054166 -622.254762 181.161591
-1604.391048 -623.205115 180.586378
-1602.727931 -624.155468 180.011164
-1601.064814 -625.105821 179.435951
-1599.401697 -626.056173 178.860737
-1597.738579 -627.006526 178.285524
-1596.075462 -627.956879 177.710310
-1594.412345 -628.907232 177.135097
