480.000000 208.000000 24.000000
478.084347 208.000000 24.574696
476.168695 208.000000 25.149392
474.253042 208.000000 25.724087
472.337390 208.000000 26.298783
470.421737 208.000000 26.873479
468.506085 208.000000 27.448175
466.590432 208.000000 28.022870
464.674779 208.000000 28.597566
462.759127 208.000000 29.172262
460.843474 208.000000 29.746958
458.927822 208.000000 30.321653
457.012169 208.000000 30.896349
455.096517 208.000000 31.471045
453.180864 208.000000 32.045741
451.265211 208.000000 32.620437
449.349559 208.000000 33.195132
447.433906 208.000000 33.769828
445.518254 208.000000 34.344524
443.602601 208.000000 34.919220
441.686949 208.000000 35.493915
439.771296 208.000000 36.068611
437.855643 208.000000 36.643307
435.939991 208.000000 37.218003
434.024338 208.000000 37.792699
432.108686 208.000000 38.367394
430.193033 208.000000 38.942090
428.277381 208.000000 39.516786
426.361728 208.000000 40.091482
424.446075 208.000000 40.666177
422.530423 208.000000 41.240873
420.614770 208.000000 41.815569
418.699118 208.000000 42.390265
416.783465 208.000000 42.964960
414.867813 208.000000 43.539656
412.952160 208.000000 44.114352
411.036507 208.000000 44.689048
409.120855 208.000000 45.263744
407.205202 208.000000 45.838439
405.289550 208.000000 46.413135
403.373897 208.000000 46.987831
400.000000 208.000000 48.000000
398.127342 208.000000 48.702247
396.254683 208.000000 49.404494
394.382025 208.000000 50.106741
392.509367 208.000000 50.808988
390.636708 208.000000 51.511234
388.764050 208.000000 52.213481
386.891392 208.000000 52.915728
385.018733 208.000000 53.617975
383.146075 208.000000 54.320222
381.273416 208.000000 55.022469
379.400758 208.000000 55.724716
377.528100 208.000000 56.426963
375.655441 208.000000 57.129209
373.782783 208.000000 57.831456
371.910125 208.000000 58.533703
370.037466 208.000000 59.235950
368.164808 208.000000 59.938197
366.292150 208.000000 60.640444
364.419491 208.000000 61.342691
362.546833 208.000000 62.044938
360.674175 208.000000 62.747185
358.801516 208.000000 63.449431
356.928858 208.000000 64.151678
355.056199 208.000000 64.853925
353.183541 208.000000 65.556172
351.310883 208.000000 66.258419
349.438224 208.000000 66.960666
347.565566 208.000000 67.662913
345.692908 208.000000 68.365160
343.820249 208.000000 69.067406
341.947591 208.000000 69.769653
340.074933 208.000000 70.471900
338.202274 208.000000 71.174147
336.329616 208.000000 71.876394
334.456958 208.000000 72.578641
332.584299 208.000000 73.280888
330.711641 208.000000 73.983135
328.838983 208.000000 74.685382
326.966324 208.000000 75.387628
325.093666 208.000000 76.089875
323.221007 208.000000 76.792122
321.348349 208.000000 77.494369
319.475691 208.000000 78.196616
317.603032 208.000000 78.898863
315.730374 208.000000 79.601110
313.857716 208.000000 80.303357
311.985057 208.000000 81.005604
310.112399 208.000000 81.707850
308.239741 208.000000 82.410097
306.367082 208.000000 83.112344
304.494424 208.000000 83.814591
302.621766 208.000000 84.516838
300.749107 208.000000 85.219085
298.876449 208.000000 85.921332
297.003790 208.000000 86.623579
295.131132 208.000000 87.325825
293.258474 208.000000 88.028072
291.385815 208.000000 88.730319
289.513157 208.000000 89.432566
287.640499 208.000000 90.134813
285.767840 208.000000 90.837060
283.895182 208.000000 91.539307
282.022524 208.000000 92.241554
280.149865 208.000000 92.943801
278.277207 208.000000 93.646047
276.404549 208.000000 94.348294
274.531890 208.000000 95.050541
272.659232 208.000000 95.752788
270.786573 208.000000 96.455035
268.913915 208.000000 97.157282
267.041257 208.000000 97.859529
265.168598 208.000000 98.561776
263.295940 208.000000 99.264022
261.423282 208.000000 99.966269
259.550623 208.000000 100.668516
257.677965 208.000000 101.370763
255.805307 208.000000 102.073010
253.932648 208.000000 102.775257
252.059990 208.000000 103.477504
250.187332 208.000000 104.179751
248.314673 208.000000 104.881998
246.442015 208.000000 105.584244
244.569357 208.000000 106.286491
242.696698 208.000000 106.988738
240.000000 208.000000 108.000000
239.172394 206.179267 108.000000
238.344788 204.358534 108.000000
237.517182 202.537801 108.000000
236.689576 200.717068 108.000000
235.861971 198.896335 108.000000
235.034365 197.075602 108.000000
234.206759 195.254869 108.000000
233.379153 193.434136 108.000000
232.551547 191.613403 108.000000
231.723941 189.792670 108.000000
230.896335 187.971937 108.000000
230.068729 186.151205 108.000000
229.241123 184.330472 108.000000
228.413518 182.509739 108.000000
227.585912 180.689006 108.000000
226.758306 178.868273 108.000000
225.930700 177.047540 108.000000
225.103094 175.226807 108.000000
224.275488 173.406074 108.000000
223.447882 171.585341 108.000000
222.620276 169.764608 108.000000
221.792670 167.943875 108.000000
220.965065 166.123142 108.000000
220.137459 164.302409 108.000000
219.309853 162.481676 108.000000
218.482247 160.660943 108.000000
217.654641 158.840210 108.000000
216.827035 157.019477 108.000000
215.999429 155.198744 108.000000
215.171823 153.378011 108.000000
214.344217 151.557278 108.000000
213.516612 149.736545 108.000000
212.689006 147.915812 108.000000
211.861400 146.095080 108.000000
211.033794 144.274347 108.000000
210.206188 142.453614 108.000000
209.378582 140.632881 108.000000
208.550976 138.812148 108.000000
207.723370 136.991415 108.000000
206.895764 135.170682 108.000000
206.068159 133.349949 108.000000
205.240553 131.529216 108.000000
204.412947 129.708483 108.000000
203.585341 127.887750 108.000000
202.757735 126.067017 108.000000
201.930129 124.246284 108.000000
201.102523 122.425551 108.000000
200.274917 120.604818 108.000000
199.447311 118.784085 108.000000
198.619706 116.963352 108.000000
197.792100 115.142619 108.000000
196.964494 113.321886 108.000000
196.136888 111.501153 108.000000
195.309282 109.680420 108.000000
194.481676 107.859687 108.000000
193.654070 106.038955 108.000000
192.826464 104.218222 108.000000
191.998858 102.397489 108.000000
191.171253 100.576756 108.000000
190.343647 98.756023 108.000000
189.516041 96.935290 108.000000
188.688435 95.114557 108.000000
187.860829 93.293824 108.000000
187.033223 91.473091 108.000000
186.205617 89.652358 108.000000
185.378011 87.831625 108.000000
184.550405 86.010892 108.000000
183.722800 84.190159 108.000000
182.895194 82.369426 108.000000
182.067588 80.548693 108.000000
181.239982 78.727960 108.000000
180.412376 76.907227 108.000000
179.584770 75.086494 108.000000
178.757164 73.265761 108.000000
177.929558 71.445028 108.000000
177.101952 69.624295 108.000000
176.274347 67.803562 108.000000
175.446741 65.982830 108.000000
174.619135 64.162097 108.000000
173.791529 62.341364 108.000000
172.963923 60.520631 108.000000
172.136317 58.699898 108.000000
171.308711 56.879165 108.000000
170.481105 55.058432 108.000000
169.653499 53.237699 108.000000
168.825894 51.416966 108.000000
167.998288 49.596233 108.000000
167.170682 47.775500 108.000000
166.343076 45.954767 108.000000
165.515470 44.134034 108.000000
164.687864 42.313301 108.000000
163.860258 40.492568 108.000000
163.032652 38.671835 108.000000
162.205046 36.851102 108.000000
161.377441 35.030369 108.000000
160.000000 32.000000 108.000000
160.000000 30.000000 108.000000
160.000000 28.000000 108.000000
160.000000 26.000000 108.000000
160.000000 24.000000 108.000000
160.000000 22.000000 108.000000
160.000000 20.000000 108.000000
160.000000 18.000000 108.000000
160.000000 16.000000 108.000000
160.000000 14.000000 108.000000
160.000000 12.000000 108.000000
160.000000 10.000000 108.000000
160.000000 8.000000 108.000000
160.000000 6.000000 108.000000
160.000000 4.000000 108.000000
160.000000 2.000000 108.000000
160.000000 0.000000 108.000000
160.000000 -2.000000 108.000000
160.000000 -4.000000 108.000000
160.000000 -6.000000 108.000000
160.000000 -8.000000 108.000000
160.000000 -10.000000 108.000000
160.000000 -12.000000 108.000000
160.000000 -14.000000 108.000000
160.000000 -16.000000 108.000000
160.000000 -18.000000 108.000000
160.000000 -20.000000 108.000000
160.000000 -22.000000 108.000000
160.000000 -24.000000 108.000000
160.000000 -26.000000 108.000000
160.000000 -28.000000 108.000000
160.000000 -32.000000 108.000000
160.000000 -34.000000 108.000000
160.000000 -36.000000 108.000000
160.000000 -38.000000 108.000000
160.000000 -40.000000 108.000000
160.000000 -42.000000 108.000000
160.000000 -44.000000 108.000000
160.000000 -46.000000 108.000000
160.000000 -48.000000 108.000000
160.000000 -50.000000 108.000000
160.000000 -52.000000 108.000000
160.000000 -54.000000 108.000000
160.000000 -56.000000 108.000000
160.000000 -58.000000 108.000000
160.000000 -60.000000 108.000000
160.000000 -62.000000 108.000000
160.000000 -64.000000 108.000000
160.000000 -66.000000 108.000000
160.000000 -68.000000 108.000000
160.000000 -70.000000 108.000000
160.000000 -72.000000 108.000000
160.000000 -74.000000 108.000000
160.000000 -76.000000 108.000000
160.000000 -78.000000 108.000000
160.000000 -80.000000 108.000000
160.000000 -82.000000 108.000000
160.000000 -84.000000 108.000000
160.000000 -86.000000 108.000000
160.000000 -88.000000 108.000000
160.000000 -90.000000 108.000000
160.000000 -92.000000 108.000000
160.000000 -94.000000 108.000000
160.000000 -96.000000 108.000000
160.000000 -98.000000 108.000000
160.000000 -100.000000 108.000000
160.000000 -102.000000 108.000000
160.000000 -104.000000 108.000000
160.000000 -106.000000 108.000000
160.000000 -108.000000 108.000000
160.000000 -110.000000 108.000000
160.000000 -112.000000 108.000000
160.000000 -114.000000 108.000000
160.000000 -116.000000 108.000000
160.000000 -118.000000 108.000000
160.000000 -120.000000 108.000000
160.000000 -122.000000 108.000000
160.000000 -124.000000 108.000000
160.000000 -126.000000 108.000000
160.000000 -128.000000 108.000000
160.000000 -130.000000 108.000000
160.000000 -132.000000 108.000000
160.000000 -134.000000 108.000000
160.000000 -136.000000 108.000000
160.000000 -138.000000 108.000000
160.000000 -140.000000 108.000000
160.000000 -142.000000 108.000000
160.000000 -144.000000 108.000000
160.000000 -146.000000 108.000000
160.000000 -148.000000 108.000000
160.000000 -150.000000 108.000000
160.000000 -152.000000 108.000000
160.000000 -154.000000 108.000000
160.000000 -156.000000 108.000000
160.000000 -160.000000 108.000000
160.000000 -162.000000 108.000000
160.000000 -164.000000 108.000000
160.000000 -166.000000 108.000000
160.000000 -168.000000 108.000000
160.000000 -170.000000 108.000000
160.000000 -172.000000 108.000000
160.000000 -174.000000 108.000000
160.000000 -176.000000 108.000000
160.000000 -178.000000 108.000000
160.000000 -180.000000 108.000000
160.000000 -182.000000 108.000000
160.000000 -184.000000 108.000000
160.000000 -186.000000 108.000000
160.000000 -188.000000 108.000000
160.000000 -190.000000 108.000000
160.000000 -192.000000 108.000000
160.000000 -194.000000 108.000000
160.000000 -196.000000 108.000000
160.000000 -198.000000 108.000000
160.000000 -200.000000 108.000000
160.000000 -202.000000 108.000000
160.000000 -204.000000 108.000000
160.000000 -206.000000 108.000000
160.000000 -208.000000 108.000000
160.000000 -210.000000 108.000000
160.000000 -212.000000 108.000000
160.000000 -214.000000 108.000000
160.000000 -216.000000 108.000000
160.000000 -218.000000 108.000000
160.000000 -220.000000 108.000000
160.000000 -222.000000 108.000000
160.000000 -224.000000 108.000000
160.000000 -226.000000 108.000000
160.000000 -228.000000 108.000000
160.000000 -230.000000 108.000000
160.000000 -232.000000 108.000000
160.000000 -234.000000 108.000000
160.000000 -236.000000 108.000000
160.000000 -238.000000 108.000000
160.000000 -240.000000 108.000000
160.000000 -242.000000 108.000000
160.000000 -244.000000 108.000000
160.000000 -246.000000 108.000000
160.000000 -248.000000 108.000000
160.000000 -250.000000 108.000000
160.000000 -252.000000 108.000000
160.000000 -254.000000 108.000000
160.000000 -256.000000 108.000000
160.000000 -258.000000 108.000000
160.000000 -260.000000 108.000000
160.000000 -262.000000 108.000000
160.000000 -264.000000 108.000000
160.000000 -266.000000 108.000000
160.000000 -268.000000 108.000000
160.000000 -270.000000 108.000000
160.000000 -272.000000 108.000000
160.000000 -274.000000 108.000000
160.000000 -276.000000 108.000000
160.000000 -278.000000 108.000000
160.000000 -280.000000 108.000000
160.000000 -282.000000 108.000000
160.000000 -284.000000 108.000000
160.000000 -286.000000 108.000000
160.000000 -288.000000 108.000000
160.000000 -290.000000 108.000000
160.000000 -292.000000 108.000000
160.000000 -294.000000 108.000000
160.000000 -296.000000 108.000000
160.000000 -298.000000 108.000000
160.000000 -300.000000 108.000000
160.000000 -302.000000 108.000000
160.000000 -304.000000 108.000000
160.000000 -306.000000 108.000000
160.000000 -308.000000 108.000000
160.000000 -310.000000 108.000000
160.000000 -312.000000 108.000000
160.000000 -314.000000 108.000000
160.000000 -316.000000 108.000000
160.000000 -318.000000 108.000000
160.000000 -320.000000 108.000000
160.000000 -322.000000 108.000000
160.000000 -324.000000 108.000000
160.000000 -326.000000 108.000000
160.000000 -328.000000 108.000000
160.000000 -330.000000 108.000000
160.000000 -332.000000 108.000000
160.000000 -334.000000 108.000000
160.000000 -336.000000 108.000000
160.000000 -338.000000 108.000000
160.000000 -340.000000 108.000000
160.000000 -342.000000 108.000000
160.000000 -344.000000 108.000000
160.000000 -346.000000 108.000000
160.000000 -348.000000 108.000000
160.000000 -350.000000 108.000000
160.000000 -352.000000 108.000000
160.000000 -354.000000 108.000000
160.000000 -356.000000 108.000000
160.000000 -358.000000 108.000000
160.000000 -360.000000 108.000000
160.000000 -362.000000 108.000000
160.000000 -364.000000 108.000000
160.000000 -368.000000 108.000000
158.315696 -368.673722 107.157848
156.631392 -369.347443 106.315696
154.947088 -370.021165 105.473544
153.262785 -370.694886 104.631392
151.578481 -371.368608 103.789240
149.894177 -372.042329 102.947088
148.209873 -372.716051 102.104937
146.525569 -373.389772 101.262785
144.841265 -374.063494 100.420633
143.156962 -374.737215 99.578481
141.472658 -375.410937 98.736329
139.788354 -376.084658 97.894177
138.104050 -376.758380 97.052025
136.419746 -377.432102 96.209873
134.735442 -378.105823 95.367721
133.051139 -378.779545 94.525569
131.366835 -379.453266 93.683417
129.682531 -380.126988 92.841265
127.998227 -380.800709 91.999113
126.313923 -381.474431 91.156962
124.629619 -382.148152 90.314810
122.945315 -382.821874 89.472658
121.261012 -383.495595 88.630506
119.576708 -384.169317 87.788354
117.892404 -384.843038 86.946202
116.208100 -385.516760 86.104050
114.523796 -386.190481 85.261898
112.839492 -386.864203 84.419746
111.155189 -387.537925 83.577594
109.470885 -388.211646 82.735442
107.786581 -388.885368 81.893290
106.102277 -389.559089 81.051139
104.417973 -390.232811 80.208987
102.733669 -390.906532 79.366835
101.049366 -391.580254 78.524683
99.365062 -392.253975 77.682531
97.680758 -392.927697 76.840379
95.996454 -393.601418 75.998227
94.312150 -394.275140 75.156075
92.627846 -394.948861 74.313923
90.943542 -395.622583 73.471771
89.259239 -396.296305 72.629619
87.574935 -396.970026 71.787467
85.890631 -397.643748 70.945315
84.206327 -398.317469 70.103164
82.522023 -398.991191 69.261012
80.000000 -400.000000 68.000000
78.585786 -401.414214 68.000000
77.171573 -402.828427 68.000000
75.757359 -404.242641 68.000000
74.343146 -405.656854 68.000000
72.928932 -407.071068 68.000000
71.514719 -408.485281 68.000000
70.100505 -409.899495 68.000000
68.686292 -411.313708 68.000000
67.272078 -412.727922 68.000000
65.857864 -414.142136 68.000000
64.443651 -415.556349 68.000000
63.029437 -416.970563 68.000000
61.615224 -418.384776 68.000000
60.201010 -419.798990 68.000000
58.786797 -421.213203 68.000000
57.372583 -422.627417 68.000000
55.958369 -424.041631 68.000000
54.544156 -425.455844 68.000000
53.129942 -426.870058 68.000000
51.715729 -428.284271 68.000000
50.301515 -429.698485 68.000000
48.887302 -431.112698 68.000000
47.473088 -432.526912 68.000000
46.058875 -433.941125 68.000000
44.644661 -435.355339 68.000000
43.230447 -436.769553 68.000000
41.816234 -438.183766 68.000000
40.402020 -439.597980 68.000000
38.987807 -441.012193 68.000000
37.573593 -442.426407 68.000000
36.159380 -443.840620 68.000000
34.745166 -445.254834 68.000000
33.330952 -446.669048 68.000000
31.916739 -448.083261 68.000000
30.502525 -449.497475 68.000000
29.088312 -450.911688 68.000000
27.674098 -452.325902 68.000000
26.259885 -453.740115 68.000000
24.845671 -455.154329 68.000000
23.431458 -456.568542 68.000000
22.017244 -457.982756 68.000000
20.603030 -459.396970 68.000000
19.188817 -460.811183 68.000000
17.774603 -462.225397 68.000000
16.360390 -463.639610 68.000000
14.946176 -465.053824 68.000000
13.531963 -466.468037 68.000000
12.117749 -467.882251 68.000000
10.703535 -469.296465 68.000000
9.289322 -470.710678 68.000000
7.875108 -472.124892 68.000000
6.460895 -473.539105 68.000000
5.046681 -474.953319 68.000000
3.632468 -476.367532 68.000000
2.218254 -477.781746 68.000000
0.000000 -480.000000 68.000000
-0.652111 -481.874820 67.755458
-1.304223 -483.749640 67.510917
-1.956334 -485.624460 67.266375
-2.608445 -487.499280 67.021833
-3.260557 -489.374100 66.777291
-3.912668 -491.248920 66.532750
-4.564779 -493.123740 66.288208
-5.216891 -494.998560 66.043666
-5.869002 -496.873380 65.799124
-6.521113 -498.748200 65.554583
-7.173224 -500.623020 65.310041
-7.825336 -502.497840 65.065499
-8.477447 -504.372660 64.820957
-9.129558 -506.247480 64.576416
-9.781670 -508.122301 64.331874
-10.433781 -509.997121 64.087332
-11.085892 -511.871941 63.842790
-11.738004 -513.746761 63.598249
-12.390115 -515.621581 63.353707
-13.042226 -517.496401 63.109165
-13.694338 -519.371221 62.864623
-14.346449 -521.246041 62.620082
-14.998560 -523.120861 62.375540
-15.650672 -524.995681 62.130998
-16.302783 -526.870501 61.886456
-16.954894 -528.745321 61.641915
-17.607006 -530.620141 61.397373
-18.259117 -532.494961 61.152831
-18.911228 -534.369781 60.908289
-19.563340 -536.244601 60.663748
-20.215451 -538.119421 60.419206
-20.867562 -539.994241 60.174664
-21.519673 -541.869061 59.930122
-22.171785 -543.743881 59.685581
-22.823896 -545.618701 59.441039
-23.476007 -547.493521 59.196497
-24.128119 -549.368341 58.951955
-24.780230 -551.243161 58.707414
-25.432341 -553.117981 58.462872
-26.084453 -554.992801 58.218330
-26.736564 -556.867621 57.973789
-27.388675 -558.742441 57.729247
-28.040787 -560.617262 57.484705
-28.692898 -562.492082 57.240163
-29.345009 -564.366902 56.995622
-29.997121 -566.241722 56.751080
-30.649232 -568.116542 56.506538
-31.301343 -569.991362 56.261996
