7.000000 98.000000 40.000000
6.100844 98.547313 41.700578
5.201687 99.094625 43.401157
4.302531 99.641938 45.101735
3.403375 100.189250 46.802313
2.504218 100.736563 48.502892
1.605062 101.283875 50.203470
0.705905 101.831188 51.904049
-0.193251 102.378501 53.604627
-1.092407 102.925813 55.305205
-1.991564 103.473126 57.005784
-2.890720 104.020438 58.706362
-3.789876 104.567751 60.406940
-4.689033 105.115063 62.107519
-5.588189 105.662376 63.808097
-6.487346 106.209689 65.508675
-7.386502 106.757001 67.209254
-8.285658 107.304314 68.909832
-9.184815 107.851626 70.610410
-10.083971 108.398939 72.310989
-10.983127 108.946252 74.011567
-11.882284 109.493564 75.712146
-12.781440 110.040877 77.412724
-13.680597 110.588189 79.113302
-14.579753 111.135502 80.813881
-16.000000 112.000000 83.500000
-17.338911 112.296834 84.955750
-18.677822 112.593668 86.411500
-20.016733 112.890502 87.867249
-21.355643 113.187336 89.322999
-22.694554 113.484170 90.778749
-24.033465 113.781004 92.234499
-25.372376 114.077838 93.690248
-26.711287 114.374672 95.145998
-28.050198 114.671506 96.601748
-29.389108 114.968340 98.057498
-30.728019 115.265174 99.513247
-32.066930 115.562008 100.968997
-33.405841 115.858842 102.424747
-34.744752 116.155676 103.880497
-36.083663 116.452510 105.336246
-37.422573 116.749344 106.791996
-38.761484 117.046178 108.247746
-40.100395 117.343012 109.703496
-41.439306 117.639846 111.159245
-42.778217 117.936680 112.614995
-44.117128 118.233514 114.070745
-45.456038 118.530348 115.526495
-46.794949 118.827182 116.982244
-48.133860 119.124016 118.437994
-49.472771 119.420850 119.893744
-50.811682 119.717684 121.349494
-52.150593 120.014518 122.805243
-53.489503 120.311352 124.260993
-54.828414 120.608186 125.716743
-56.167325 120.905020 127.172493
-57.506236 121.201854 128.628242
-58.845147 121.498688 130.083992
-60.184058 121.795522 131.539742
-61.522968 122.092356 132.995492
-62.861879 122.389190 134.451241
-64.200790 122.686024 135.906991
-65.539701 122.982858 137.362741
-66.878612 123.279692 138.818491
-68.217523 123.576526 140.274240
-69.556433 123.873360 141.729990
-70.895344 124.170194 143.185740
-72.234255 124.467028 144.641490
-73.573166 124.763862 146.097239
-74.912077 125.060696 147.552989
-76.250988 125.357530 149.008739
-77.589898 125.654364 150.464489
-78.928809 125.951198 151.920238
-80.267720 126.248032 153.375988
-81.606631 126.544866 154.831738
-82.945542 126.841700 156.287488
-84.284453 127.138534 157.743237
-85.623363 127.435368 159.198987
-86.962274 127.732202 160.654737
-88.301185 128.029036 162.110487
-89.640096 128.325870 163.566236
-90.979007 128.622704 165.021986
-92.317918 128.919538 166.477736
-93.656829 129.216372 167.933486
-94.995739 129.513206 169.389235
-96.334650 129.810040 170.844985
-97.673561 130.106874 172.300735
-99.012472 130.403708 173.756485
-100.351383 130.700542 175.212234
-101.690294 130.997376 176.667984
-103.029204 131.294210 178.123734
-104.368115 131.591044 179.579484
-105.707026 131.887878 181.035233
-107.045937 132.184712 182.490983
-108.384848 132.481546 183.946733
-109.723759 132.778380 185.402483
-111.062669 133.075214 186.858233
-112.401580 133.372048 188.313982
-113.740491 133.668882 189.769732
-115.079402 133.965716 191.225482
-116.418313 134.262550 192.681232
-117.757224 134.559384 194.136981
-119.096134 134.856218 195.592731
-120.435045 135.153052 197.048481
-121.773956 135.449886 198.504231
-123.112867 135.746720 199.959980
-124.451778 136.043554 201.415730
-125.790689 136.340389 202.871480
-127.129599 136.637223 204.327230
-128.468510 136.934057 205.782979
-129.807421 137.230891 207.238729
-131.146332 137.527725 208.694479
-132.485243 137.824559 210.150229
-133.824154 138.121393 211.605978
-135.163064 138.418227 213.061728
-136.501975 138.715061 214.517478
-137.840886 139.011895 215.973228
-139.179797 139.308729 217.428977
-140.518708 139.605563 218.884727
-141.857619 139.902397 220.340477
-143.196529 140.199231 221.796227
-144.535440 140.496065 223.251976
-145.874351 140.792899 224.707726
-147.213262 141.089733 226.163476
-148.552173 141.386567 227.619226
-149.891084 141.683401 229.074975
-151.229994 141.980235 230.530725
-152.568905 142.277069 231.986475
-153.907816 142.573903 233.442225
-155.246727 142.870737 234.897974
-156.585638 143.167571 236.353724
-157.924549 143.464405 237.809474
-159.263459 143.761239 239.265224
-160.602370 144.058073 240.720973
-161.941281 144.354907 242.176723
-163.280192 144.651741 243.632473
-164.619103 144.948575 245.088223
-165.958014 145.245409 246.543972
-167.296925 145.542243 247.999722
-168.635835 145.839077 249.455472
-169.974746 146.135911 250.911222
-171.313657 146.432745 252.366971
-172.652568 146.729579 253.822721
-173.991479 147.026413 255.278471
-175.330390 147.323247 256.734221
-176.669300 147.620081 258.189970
-178.008211 147.916915 259.645720
-179.347122 148.213749 261.101470
-180.686033 148.510583 262.557220
-182.024944 148.807417 264.012969
-183.363855 149.104251 265.468719
-184.702765 149.401085 266.924469
-186.041676 149.697919 268.380219
-187.380587 149.994753 269.835968
-188.719498 150.291587 271.291718
-190.058409 150.588421 272.747468
-191.397320 150.885255 274.203218
-192.736230 151.182089 275.658967
-194.075141 151.478923 277.114717
-195.414052 151.775757 278.570467
-196.752963 152.072591 280.026217
-198.091874 152.369425 281.481966
-199.430785 152.666259 282.937716
-200.769695 152.963093 284.393466
-202.108606 153.259927 285.849216
-203.447517 153.556761 287.304966
-204.786428 153.853595 288.760715
-206.125339 154.150429 290.216465
-207.464250 154.447263 291.672215
-208.803160 154.744097 293.127965
-210.142071 155.040931 294.583714
-211.480982 155.337765 296.039464
-212.819893 155.634599 297.495214
-214.158804 155.931433 298.950964
-215.497715 156.228267 300.406713
-216.836625 156.525101 301.862463
-218.175536 156.821935 303.318213
-219.514447 157.118769 304.773963
-220.853358 157.415603 306.229712
-222.192269 157.712437 307.685462
-223.531180 158.009271 309.141212
-224.870090 158.306105 310.596962
-226.209001 158.602939 312.052711
-228.000000 159.000000 314.000000
-229.469607 159.000000 312.643440
-230.939214 159.000000 311.286880
-232.408821 159.000000 309.930319
-233.878428 159.000000 308.573759
-235.348034 159.000000 307.217199
-236.817641 159.000000 305.860639
-238.287248 159.000000 304.504079
-241.000000 159.000000 302.000000
-241.000000 158.481241 300.068449
-241.000000 157.962481 298.136898
-241.000000 157.443722 296.205347
-241.000000 156.924963 294.273797
-241.000000 156.406203 292.342246
-241.000000 155.887444 290.410695
-241.000000 155.368684 288.479144
-241.000000 154.849925 286.547593
-241.000000 154.331166 284.616042
-241.000000 153.812406 282.684491
-241.000000 153.293647 280.752941
-241.000000 152.774888 278.821390
-241.000000 152.256128 276.889839
-241.000000 151.737369 274.958288
-241.000000 151.218609 273.026737
-241.000000 150.699850 271.095186
-241.000000 150.181091 269.163635
-241.000000 149.662331 267.232085
-241.000000 149.143572 265.300534
-241.000000 148.624813 263.368983
-241.000000 148.106053 261.437432
-241.000000 147.587294 259.505881
-241.000000 147.068534 257.574330
-241.000000 146.549775 255.642779
-241.000000 146.031016 253.711229
-241.000000 145.512256 251.779678
-241.000000 144.993497 249.848127
-241.000000 144.474738 247.916576
-241.000000 143.955978 245.985025
-241.000000 143.437219 244.053474
-241.000000 142.918459 242.121923
-241.000000 142.399700 240.190373
-241.000000 141.880941 238.258822
-241.000000 141.362181 236.327271
-241.000000 140.843422 234.395720
-241.000000 140.324663 232.464169
-241.000000 139.805903 230.532618
-241.000000 139.287144 228.601067
-241.000000 138.768384 226.669517
-241.000000 138.249625 224.737966
-241.000000 137.730866 222.806415
-241.000000 137.212106 220.874864
-241.000000 136.693347 218.943313
-241.000000 136.174588 217.011762
-241.000000 135.655828 215.080211
-241.000000 135.137069 213.148661
-241.000000 134.618309 211.217110
-241.000000 134.099550 209.285559
-241.000000 133.580791 207.354008
-241.000000 133.062031 205.422457
-241.000000 132.543272 203.490906
-241.000000 132.024513 201.559355
-241.000000 131.505753 199.627805
-241.000000 130.986994 197.696254
-241.000000 130.468234 195.764703
-241.000000 129.949475 193.833152
-241.000000 129.430716 191.901601
-241.000000 128.911956 189.970050
-241.000000 128.393197 188.038499
-241.000000 127.874438 186.106949
-241.000000 127.355678 184.175398
-241.000000 126.836919 182.243847
-241.000000 126.318160 180.312296
-241.000000 125.799400 178.380745
-241.000000 125.280641 176.449194
-241.000000 124.761881 174.517643
-241.000000 124.243122 172.586093
-241.000000 123.724363 170.654542
-241.000000 123.205603 168.722991
-241.000000 122.686844 166.791440
-241.000000 122.168085 164.859889
-241.000000 121.649325 162.928338
-241.000000 121.130566 160.996787
-241.000000 120.611806 159.065237
-241.000000 120.093047 157.133686
-241.000000 119.574288 155.202135
-241.000000 119.055528 153.270584
-241.000000 118.536769 151.339033
-241.000000 118.018010 149.407482
-241.000000 117.499250 147.475931
-241.000000 116.980491 145.544381
-241.000000 116.461731 143.612830
-241.000000 115.942972 141.681279
-241.000000 115.424213 139.749728
-241.000000 114.905453 137.818177
-241.000000 114.386694 135.886626
-241.000000 113.867935 133.955075
-241.000000 113.349175 132.023525
-241.000000 112.830416 130.091974
-241.000000 112.000000 127.000000
-241.000000 110.004325 126.868548
-241.000000 108.008649 126.737097
-241.000000 106.012974 126.605645
-241.000000 104.017298 126.474193
-241.000000 102.021623 126.342742
-241.000000 100.025947 126.211290
-241.000000 98.030272 126.079838
-241.000000 96.034596 125.948387
-241.000000 94.038921 125.816935
-241.000000 92.043246 125.685483
-241.000000 90.047570 125.554032
-241.000000 88.051895 125.422580
-241.000000 86.056219 125.291128
-241.000000 84.060544 125.159677
-241.000000 82.064868 125.028225
-241.000000 80.069193 124.896773
-241.000000 78.073518 124.765322
-241.000000 76.077842 124.633870
-241.000000 74.082167 124.502418
-241.000000 72.086491 124.370966
-241.000000 70.090816 124.239515
-241.000000 68.095140 124.108063
-241.000000 66.099465 123.976611
-241.000000 64.103789 123.845160
-241.000000 62.108114 123.713708
-241.000000 60.112439 123.582256
-241.000000 58.116763 123.450805
-241.000000 56.121088 123.319353
-241.000000 54.125412 123.187901
-241.000000 52.129737 123.056450
-241.000000 50.134061 122.924998
-241.000000 48.138386 122.793546
-241.000000 46.142711 122.662095
-241.000000 44.147035 122.530643
-241.000000 42.151360 122.399191
-241.000000 40.155684 122.267740
-241.000000 38.160009 122.136288
-241.000000 36.164333 122.004836
-241.000000 34.168658 121.873385
-241.000000 32.172982 121.741933
-241.000000 30.177307 121.610481
-241.000000 28.181632 121.479030
-241.000000 26.185956 121.347578
-241.000000 24.190281 121.216126
-241.000000 22.194605 121.084675
-241.000000 20.198930 120.953223
-241.000000 18.203254 120.821771
-241.000000 16.207579 120.690320
-241.000000 14.211903 120.558868
-241.000000 12.216228 120.427416
-241.000000 10.220553 120.295965
-241.000000 8.224877 120.164513
-241.000000 6.229202 120.033061
-241.000000 4.233526 119.901610
-241.000000 2.237851 119.770158
-241.000000 0.242175 119.638706
-241.000000 -1.753500 119.507254
-241.000000 -3.749175 119.375803
-241.000000 -5.744851 119.244351
-241.000000 -7.740526 119.112899
-241.000000 -9.736202 118.981448
-241.000000 -11.731877 118.849996
-241.000000 -13.727553 118.718544
-241.000000 -15.723228 118.587093
-241.000000 -17.718904 118.455641
-241.000000 -19.714579 118.324189
-241.000000 -21.710254 118.192738
-241.000000 -23.705930 118.061286
-241.000000 -25.701605 117.929834
-241.000000 -27.697281 117.798383
-241.000000 -29.692956 117.666931
-241.000000 -31.688632 117.535479
-241.000000 -33.684307 117.404028
-241.000000 -35.679982 117.272576
-241.000000 -37.675658 117.141124
-241.000000 -39.671333 117.009673
-241.000000 -41.667009 116.878221
-241.000000 -43.662684 116.746769
-241.000000 -45.658360 116.615318
-241.000000 -47.654035 116.483866
-241.000000 -49.649711 116.352414
-241.000000 -51.645386 116.220963
