-96.000000 80.000000 40.000000
-96.337760 81.351041 41.435481
-96.675521 82.702082 42.870962
-97.013281 84.053123 44.306443
-97.351041 85.404164 45.741925
-97.688801 86.755205 47.177406
-98.026562 88.106246 48.612887
-98.364322 89.457287 50.048368
-98.702082 90.808328 51.483849
-99.039842 92.159370 52.919330
-99.377603 93.510411 54.354811
-99.715363 94.861452 55.790292
-100.053123 96.212493 57.225774
-100.390883 97.563534 58.661255
-100.728644 98.914575 60.096736
-101.066404 100.265616 61.532217
-101.404164 101.616657 62.967698
-101.741925 102.967698 64.403179
-102.079685 104.318739 65.838660
-102.417445 105.669780 67.274141
-102.755205 107.020821 68.709623
-103.092966 108.371862 70.145104
-103.430726 109.722903 71.580585
-103.768486 111.073944 73.016066
-104.106246 112.424985 74.451547
-104.444007 113.776026 75.887028
-104.781767 115.127068 77.322509
-105.119527 116.478109 78.757990
-105.457287 117.829150 80.193472
-105.795048 119.180191 81.628953
-106.132808 120.531232 83.064434
-106.470568 121.882273 84.499915
-106.808328 123.233314 85.935396
-107.146089 124.584355 87.370877
-107.483849 125.935396 88.806358
-107.821609 127.286437 90.241839
-108.159370 128.637478 91.677321
-108.497130 129.988519 93.112802
-108.834890 131.339560 94.548283
-109.172650 132.690601 95.983764
-109.510411 134.041642 97.419245
-109.848171 135.392683 98.854726
-110.185931 136.743724 100.290207
-110.523691 138.094766 101.725688
-110.861452 139.445807 103.161170
-111.199212 140.796848 104.596651
-111.536972 142.147889 106.032132
-112.000000 144.000000 108.000000
-112.000000 144.000000 106.000000
-112.000000 144.000000 104.000000
-112.000000 144.000000 102.000000
-112.000000 144.000000 100.000000
-112.000000 144.000000 98.000000
-112.000000 144.000000 96.000000
-112.000000 144.000000 94.000000
-112.000000 144.000000 92.000000
-112.000000 144.000000 90.000000
-112.000000 144.000000 88.000000
-112.000000 144.000000 86.000000
-112.000000 144.000000 84.000000
-112.000000 144.000000 82.000000
-112.000000 144.000000 80.000000
-112.000000 144.000000 78.000000
-112.000000 144.000000 76.000000
-112.000000 144.000000 74.000000
-112.000000 144.000000 72.000000
-112.000000 144.000000 70.000000
-112.000000 144.000000 68.000000
-112.000000 144.000000 66.000000
-112.000000 144.000000 64.000000
-112.000000 144.000000 62.000000
-112.000000 144.000000 60.000000
-112.000000 144.000000 58.000000
-112.000000 144.000000 56.000000
-112.000000 144.000000 54.000000
-112.000000 144.000000 52.000000
-112.000000 144.000000 50.000000
-112.000000 144.000000 48.000000
-112.000000 144.000000 46.000000
-112.000000 144.000000 44.000000
-112.000000 144.000000 42.000000
-112.000000 144.000000 40.000000
-112.000000 144.000000 38.000000
-112.000000 144.000000 36.000000
-112.000000 144.000000 34.000000
-112.000000 144.000000 32.000000
-112.000000 144.000000 30.000000
-112.000000 144.000000 28.000000
-112.000000 144.000000 26.000000
-112.000000 144.000000 24.000000
-112.000000 144.000000 22.000000
-112.000000 144.000000 20.000000
-112.000000 144.000000 18.000000
-112.000000 144.000000 16.000000
-112.000000 144.000000 14.000000
-112.000000 144.000000 12.000000
-112.000000 144.000000 10.000000
-112.000000 144.000000 8.000000
-112.000000 144.000000 6.000000
-112.000000 144.000000 4.000000
-112.000000 144.000000 2.000000
-112.000000 144.000000 0.000000
-112.000000 144.000000 -2.000000
-112.000000 144.000000 -4.000000
-112.000000 144.000000 -6.000000
-112.000000 144.000000 -8.000000
-112.000000 144.000000 -10.000000
-112.000000 144.000000 -12.000000
-112.000000 144.000000 -14.000000
-112.000000 144.000000 -16.000000
-112.000000 144.000000 -18.000000
-112.000000 144.000000 -20.000000
-112.000000 144.000000 -22.000000
-112.000000 144.000000 -24.000000
