-980.000000 524.000000 156.000000
-980.823257 523.045770 157.552963
-981.646514 522.091540 159.105925
-982.469772 521.137310 160.658888
-983.293029 520.183080 162.211850
-984.116286 519.228850 163.764813
-984.939543 518.274620 165.317775
-985.762801 517.320390 166.870738
-986.586058 516.366160 168.423700
-987.409315 515.411930 169.976663
-988.232572 514.457700 171.529625
-989.055830 513.503470 173.082588
-989.879087 512.549240 174.635550
-990.702344 511.595010 176.188513
-991.525601 510.640780 177.741475
-992.348859 509.686550 179.294438
-993.172116 508.732320 180.847401
-993.995373 507.778090 182.400363
-994.818630 506.823860 183.953326
-995.641888 505.869630 185.506288
-996.465145 504.915400 187.059251
-997.288402 503.961170 188.612213
-998.111659 503.006940 190.165176
-998.934917 502.052710 191.718138
-999.758174 501.098480 193.271101
-1000.581431 500.144250 194.824063
-1001.404688 499.190020 196.377026
-1002.227946 498.235790 197.929988
-1003.051203 497.281560 199.482951
-1003.874460 496.327330 201.035913
-1004.697717 495.373100 202.588876
-1005.520975 494.418870 204.141839
-1006.344232 493.464640 205.694801
-1007.167489 492.510410 207.247764
-1007.990746 491.556180 208.800726
-1008.814004 490.601950 210.353689
-1009.637261 489.647720 211.906651
-1010.460518 488.693490 213.459614
-1011.283775 487.739260 215.012576
-1012.107033 486.785030 216.565539
-1012.930290 485.830800 218.118501
-1013.753547 484.876570 219.671464
-1014.576804 483.922340 221.224426
-1015.400062 482.968110 222.777389
-1016.223319 482.013880 224.330351
-1017.046576 481.059650 225.883314
-1017.869833 480.105420 227.436277
-1018.693091 479.151190 228.989239
-1019.516348 478.196960 230.542202
-1020.339605 477.242730 232.095164
-1021.162862 476.288500 233.648127
-1021.986120 475.334270 235.201089
-1022.809377 474.380040 236.754052
-1024.000000 473.000000 239.000000
-1023.758836 471.015562 238.937986
-1023.517671 469.031124 238.875973
-1023.276507 467.046686 238.813959
-1023.035343 465.062248 238.751945
-1022.794178 463.077810 238.689932
-1022.553014 461.093372 238.627918
-1022.311850 459.108934 238.565904
-1022.070685 457.124496 238.503891
-1021.829521 455.140058 238.441877
-1021.588357 453.155620 238.379863
-1021.347192 451.171182 238.317849
-1021.106028 449.186744 238.255836
-1020.864864 447.202306 238.193822
-1020.623699 445.217868 238.131808
-1020.382535 443.233430 238.069795
-1020.141371 441.248992 238.007781
-1019.900206 439.264554 237.945767
-1019.659042 437.280117 237.883754
-1019.417878 435.295679 237.821740
-1019.176713 433.311241 237.759726
-1018.935549 431.326803 237.697713
-1018.694385 429.342365 237.635699
-1018.453220 427.357927 237.573685
-1018.212056 425.373489 237.511672
-1017.970892 423.389051 237.449658
-1017.729727 421.404613 237.387644
-1017.488563 419.420175 237.325630
-1017.247399 417.435737 237.263617
-1017.006234 415.451299 237.201603
-1016.765070 413.466861 237.139589
-1016.523906 411.482423 237.077576
-1016.282741 409.497985 237.015562
-1016.041577 407.513547 236.953548
-1015.800413 405.529109 236.891535
-1015.559248 403.544671 236.829521
-1015.318084 401.560233 236.767507
-1015.076920 399.575795 236.705494
-1014.835755 397.591357 236.643480
-1014.594591 395.606919 236.581466
-1014.353427 393.622481 236.519453
-1014.112262 391.638043 236.457439
-1013.871098 389.653605 236.395425
-1013.629934 387.669167 236.333411
-1013.388769 385.684729 236.271398
-1013.147605 383.700291 236.209384
-1012.906441 381.715853 236.147370
-1012.665276 379.731415 236.085357
-1012.424112 377.746977 236.023343
-1012.182947 375.762539 235.961329
-1011.941783 373.778101 235.899316
-1011.700619 371.793663 235.837302
-1011.459454 369.809225 235.775288
-1011.218290 367.824787 235.713275
-1010.977126 365.840350 235.651261
-1010.735961 363.855912 235.589247
-1010.494797 361.871474 235.527234
-1010.253633 359.887036 235.465220
-1010.012468 357.902598 235.403206
-1009.771304 355.918160 235.341192
-1009.530140 353.933722 235.279179
-1009.288975 351.949284 235.217165
-1009.047811 349.964846 235.155151
-1008.806647 347.980408 235.093138
-1008.565482 345.995970 235.031124
-1008.324318 344.011532 234.969110
-1008.083154 342.027094 234.907097
-1007.841989 340.042656 234.845083
-1007.600825 338.058218 234.783069
-1007.359661 336.073780 234.721056
-1007.118496 334.089342 234.659042
-1006.877332 332.104904 234.597028
-1006.636168 330.120466 234.535015
-1006.395003 328.136028 234.473001
-1006.153839 326.151590 234.410987
-1005.912675 324.167152 234.348974
-1005.671510 322.182714 234.286960
-1005.430346 320.198276 234.224946
-1005.189182 318.213838 234.162932
-1004.948017 316.229400 234.100919
-1004.706853 314.244962 234.038905
-1004.465689 312.260524 233.976891
-1004.224524 310.276086 233.914878
-1003.983360 308.291648 233.852864
-1003.742196 306.307210 233.790850
-1003.501031 304.322772 233.728837
-1003.259867 302.338334 233.666823
-1003.018703 300.353896 233.604809
-1002.777538 298.369458 233.542796
-1002.536374 296.385020 233.480782
-1002.295210 294.400583 233.418768
-1002.054045 292.416145 233.356755
-1001.812881 290.431707 233.294741
-1001.571717 288.447269 233.232727
-1001.330552 286.462831 233.170713
-1001.089388 284.478393 233.108700
-1000.848224 282.493955 233.046686
-1000.607059 280.509517 232.984672
-1000.365895 278.525079 232.922659
-1000.124731 276.540641 232.860645
-999.883566 274.556203 232.798631
-999.642402 272.571765 232.736618
-999.401238 270.587327 232.674604
-999.160073 268.602889 232.612590
-998.918909 266.618451 232.550577
-998.677745 264.634013 232.488563
-998.436580 262.649575 232.426549
-998.195416 260.665137 232.364536
-997.954252 258.680699 232.302522
-997.713087 256.696261 232.240508
-997.471923 254.711823 232.178494
-997.230759 252.727385 232.116481
-996.989594 250.742947 232.054467
-996.748430 248.758509 231.992453
-996.507266 246.774071 231.930440
-996.266101 244.789633 231.868426
-996.024937 242.805195 231.806412
-995.783773 240.820757 231.744399
-995.542608 238.836319 231.682385
-995.301444 236.851881 231.620371
-995.060280 234.867443 231.558358
-994.819115 232.883005 231.496344
-994.577951 230.898567 231.434330
-994.336787 228.914129 231.372317
-994.095622 226.929691 231.310303
-993.854458 224.945253 231.248289
-993.613294 222.960816 231.186275
-993.372129 220.976378 231.124262
-993.130965 218.991940 231.062248
-992.889801 217.007502 231.000234
-992.648636 215.023064 230.938221
-992.407472 213.038626 230.876207
-992.166308 211.054188 230.814193
-991.925143 209.069750 230.752180
-991.683979 207.085312 230.690166
-991.442815 205.100874 230.628152
-991.201650 203.116436 230.566139
-990.960486 201.131998 230.504125
-990.719322 199.147560 230.442111
-990.478157 197.163122 230.380098
-990.236993 195.178684 230.318084
-989.995828 193.194246 230.256070
-989.754664 191.209808 230.194056
-989.513500 189.225370 230.132043
-989.272335 187.240932 230.070029
-989.000000 185.000000 230.000000
-990.221784 183.495723 230.494363
-991.443567 181.991446 230.988727
-992.665351 180.487169 231.483090
-993.887135 178.982892 231.977453
-995.108919 177.478615 232.471817
-996.330702 175.974338 232.966180
-997.552486 174.470061 233.460543
-998.774270 172.965784 233.954907
-999.996053 171.461507 234.449270
-1001.217837 169.957229 234.943634
-1002.439621 168.452952 235.437997
-1003.661405 166.948675 235.932360
-1004.883188 165.444398 236.426724
-1006.104972 163.940121 236.921087
-1007.326756 162.435844 237.415450
-1008.548539 160.931567 237.909814
-1009.770323 159.427290 238.404177
-1010.992107 157.923013 238.898540
-1012.213890 156.418736 239.392904
-1013.435674 154.914459 239.887267
-1014.657458 153.410182 240.381630
-1015.879242 151.905905 240.875994
-1017.101025 150.401628 241.370357
-1018.322809 148.897351 241.864720
-1019.544593 147.393074 242.359084
-1020.766376 145.888797 242.853447
-1021.988160 144.384520 243.347810
-1023.209944 142.880243 243.842174
-1024.431728 141.375966 244.336537
-1025.653511 139.871688 244.830901
-1026.875295 138.367411 245.325264
-1028.097079 136.863134 245.819627
-1029.318862 135.358857 246.313991
-1030.540646 133.854580 246.808354
-1031.762430 132.350303 247.302717
-1032.984214 130.846026 247.797081
-1034.205997 129.341749 248.291444
-1035.427781 127.837472 248.785807
-1036.649565 126.333195 249.280171
-1037.871348 124.828918 249.774534
-1039.093132 123.324641 250.268897
-1040.314916 121.820364 250.763261
-1041.536699 120.316087 251.257624
-1042.758483 118.811810 251.751987
-1043.980267 117.307533 252.246351
-1045.202051 115.803256 252.740714
-1046.423834 114.298979 253.235077
-1047.645618 112.794702 253.729441
-1048.867402 111.290424 254.223804
-1050.089185 109.786147 254.718168
-1051.310969 108.281870 255.212531
-1052.532753 106.777593 255.706894
-1053.754537 105.273316 256.201258
-1054.976320 103.769039 256.695621
-1056.198104 102.264762 257.189984
-1057.419888 100.760485 257.684348
-1058.641671 99.256208 258.178711
-1059.863455 97.751931 258.673074
-1061.085239 96.247654 259.167438
-1062.307023 94.743377 259.661801
-1063.528806 93.239100 260.156164
-1064.750590 91.734823 260.650528
-1065.972374 90.230546 261.144891
-1067.194157 88.726269 261.639254
-1068.415941 87.221992 262.133618
-1069.637725 85.717715 262.627981
-1070.859508 84.213438 263.122344
-1072.081292 82.709160 263.616708
-1073.303076 81.204883 264.111071
-1074.524860 79.700606 264.605435
-1075.746643 78.196329 265.099798
-1076.968427 76.692052 265.594161
-1078.190211 75.187775 266.088525
-1079.411994 73.683498 266.582888
-1080.633778 72.179221 267.077251
-1081.855562 70.674944 267.571615
-1083.077346 69.170667 268.065978
-1084.299129 67.666390 268.560341
-1085.520913 66.162113 269.054705
-1086.742697 64.657836 269.549068
-1087.964480 63.153559 270.043431
-1089.186264 61.649282 270.537795
-1090.408048 60.145005 271.032158
-1091.629832 58.640728 271.526521
-1092.851615 57.136451 272.020885
-1094.073399 55.632174 272.515248
-1095.295183 54.127897 273.009611
-1096.516966 52.623619 273.503975
-1097.738750 51.119342 273.998338
-1098.960534 49.615065 274.492702
-1100.182317 48.110788 274.987065
-1101.404101 46.606511 275.481428
-1102.625885 45.102234 275.975792
-1103.847669 43.597957 276.470155
-1105.069452 42.093680 276.964518
-1106.291236 40.589403 277.458882
-1107.513020 39.085126 277.953245
-1108.734803 37.580849 278.447608
-1109.956587 36.076572 278.941972
-1111.178371 34.572295 279.436335
-1112.400155 33.068018 279.930698
-1113.621938 31.563741 280.425062
-1114.843722 30.059464 280.919425
-1116.065506 28.555187 281.413788
-1117.287289 27.050910 281.908152
-1118.509073 25.546633 282.402515
-1119.730857 24.042355 282.896878
-1120.952641 22.538078 283.391242
-1122.174424 21.033801 283.885605
-1123.396208 19.529524 284.379969
-1124.617992 18.025247 284.874332
-1125.839775 16.520970 285.368695
-1127.061559 15.016693 285.863059
-1128.283343 13.512416 286.357422
-1129.505126 12.008139 286.851785
-1130.726910 10.503862 287.346149
-1131.948694 8.999585 287.840512
-1133.170478 7.495308 288.334875
-1134.392261 5.991031 288.829239
-1135.614045 4.486754 289.323602
-1136.835829 2.982477 289.817965
-1138.057612 1.478200 290.312329
-1139.279396 -0.026077 290.806692
-1140.501180 -1.530354 291.301055
-1141.722964 -3.034631 291.795419
-1142.944747 -4.538908 292.289782
-1144.166531 -6.043186 292.784145
-1145.388315 -7.547463 293.278509
-1146.610098 -9.051740 293.772872
-1147.831882 -10.556017 294.267236
-1149.053666 -12.060294 294.761599
-1150.275450 -13.564571 295.255962
-1151.497233 -15.068848 295.750326
-1152.719017 -16.573125 296.244689
-1153.940801 -18.077402 296.739052
-1155.162584 -19.581679 297.233416
-1156.384368 -21.085956 297.727779
-1157.606152 -22.590233 298.222142
-1158.827935 -24.094510 298.716506
-1160.049719 -25.598787 299.210869
-1162.000000 -28.000000 300.000000
-1162.000000 -29.995118 299.860342
-1162.000000 -31.990236 299.720683
-1162.000000 -33.985354 299.581025
-1162.000000 -35.980472 299.441367
-1162.000000 -37.975590 299.301709
-1162.000000 -39.970708 299.162050
-1162.000000 -41.965826 299.022392
-1162.000000 -43.960943 298.882734
-1162.000000 -45.956061 298.743076
-1162.000000 -47.951179 298.603417
-1162.000000 -49.946297 298.463759
-1162.000000 -51.941415 298.324101
-1162.000000 -53.936533 298.184443
-1162.000000 -55.931651 298.044784
-1162.000000 -57.926769 297.905126
-1162.000000 -59.921887 297.765468
-1162.000000 -61.917005 297.625810
-1162.000000 -63.912123 297.486151
-1162.000000 -65.907241 297.346493
-1162.000000 -67.902359 297.206835
-1162.000000 -69.897477 297.067177
-1162.000000 -71.892595 296.927518
-1162.000000 -73.887712 296.787860
-1162.000000 -75.882830 296.648202
-1162.000000 -77.877948 296.508544
-1162.000000 -79.873066 296.368885
-1162.000000 -81.868184 296.229227
-1162.000000 -83.863302 296.089569
-1162.000000 -85.858420 295.949911
-1162.000000 -87.853538 295.810252
-1162.000000 -89.848656 295.670594
-1162.000000 -91.843774 295.530936
-1162.000000 -93.838892 295.391278
-1162.000000 -95.834010 295.251619
-1162.000000 -97.829128 295.111961
-1162.000000 -99.824246 294.972303
-1162.000000 -101.819364 294.832645
-1162.000000 -103.814482 294.692986
-1162.000000 -105.809599 294.553328
-1162.000000 -107.804717 294.413670
-1162.000000 -109.799835 294.274012
-1162.000000 -111.794953 294.134353
-1162.000000 -113.790071 293.994695
-1162.000000 -115.785189 293.855037
-1162.000000 -117.780307 293.715379
-1162.000000 -119.775425 293.575720
-1162.000000 -121.770543 293.436062
-1162.000000 -123.765661 293.296404
-1162.000000 -125.760779 293.156745
-1162.000000 -127.755897 293.017087
-1162.000000 -129.751015 292.877429
-1162.000000 -131.746133 292.737771
-1162.000000 -133.741251 292.598112
-1162.000000 -135.736368 292.458454
-1162.000000 -137.731486 292.318796
-1162.000000 -139.726604 292.179138
-1162.000000 -141.721722 292.039479
-1162.000000 -143.716840 291.899821
-1162.000000 -145.711958 291.760163
-1162.000000 -147.707076 291.620505
-1162.000000 -149.702194 291.480846
-1162.000000 -151.697312 291.341188
-1162.000000 -153.692430 291.201530
-1162.000000 -155.687548 291.061872
-1162.000000 -157.682666 290.922213
-1162.000000 -159.677784 290.782555
-1162.000000 -161.672902 290.642897
-1162.000000 -163.668020 290.503239
-1162.000000 -165.663137 290.363580
-1162.000000 -167.658255 290.223922
-1162.000000 -169.653373 290.084264
-1162.000000 -171.648491 289.944606
-1162.000000 -173.643609 289.804947
-1162.000000 -175.638727 289.665289
-1162.000000 -177.633845 289.525631
-1162.000000 -179.628963 289.385973
-1162.000000 -181.624081 289.246314
-1162.000000 -183.619199 289.106656
-1162.000000 -185.614317 288.966998
-1162.000000 -187.609435 288.827340
-1162.000000 -189.604553 288.687681
-1162.000000 -191.599671 288.548023
-1162.000000 -193.594789 288.408365
-1162.000000 -195.589906 288.268707
-1162.000000 -197.585024 288.129048
-1162.000000 -199.580142 287.989390
-1162.000000 -201.575260 287.849732
-1162.000000 -203.570378 287.710074
-1162.000000 -205.565496 287.570415
-1162.000000 -207.560614 287.430757
-1162.000000 -209.555732 287.291099
-1162.000000 -211.550850 287.151441
-1162.000000 -213.545968 287.011782
-1162.000000 -215.541086 286.872124
-1162.000000 -217.536204 286.732466
-1162.000000 -219.531322 286.592807
-1162.000000 -221.526440 286.453149
-1162.000000 -223.521558 286.313491
-1162.000000 -225.516675 286.173833
-1162.000000 -227.511793 286.034174
-1162.000000 -229.506911 285.894516
-1162.000000 -231.502029 285.754858
-1162.000000 -233.497147 285.615200
-1162.000000 -235.492265 285.475541
-1162.000000 -237.487383 285.335883
-1162.000000 -239.482501 285.196225
-1162.000000 -241.477619 285.056567
-1162.000000 -243.472737 284.916908
-1162.000000 -245.467855 284.777250
-1162.000000 -247.462973 284.637592
-1162.000000 -249.458091 284.497934
-1162.000000 -251.453209 284.358275
-1162.000000 -253.448327 284.218617
-1162.000000 -255.443445 284.078959
-1162.000000 -257.438562 283.939301
-1162.000000 -259.433680 283.799642
-1162.000000 -261.428798 283.659984
-1162.000000 -263.423916 283.520326
-1162.000000 -265.419034 283.380668
-1162.000000 -267.414152 283.241009
-1162.000000 -269.409270 283.101351
-1162.000000 -271.404388 282.961693
-1162.000000 -273.399506 282.822035
-1162.000000 -275.394624 282.682376
-1162.000000 -277.389742 282.542718
-1162.000000 -279.384860 282.403060
-1162.000000 -281.379978 282.263402
-1162.000000 -283.375096 282.123743
-1162.000000 -285.370214 281.984085
-1162.000000 -287.365331 281.844427
-1162.000000 -289.360449 281.704769
-1162.000000 -291.355567 281.565110
-1162.000000 -293.350685 281.425452
-1162.000000 -295.345803 281.285794
-1162.000000 -297.340921 281.146136
-1162.000000 -299.336039 281.006477
-1162.000000 -301.331157 280.866819
-1162.000000 -303.326275 280.727161
-1162.000000 -305.321393 280.587502
-1162.000000 -307.316511 280.447844
-1162.000000 -309.311629 280.308186
-1162.000000 -311.306747 280.168528
-1162.000000 -313.301865 280.028869
-1162.000000 -315.296983 279.889211
-1162.000000 -317.292100 279.749553
-1162.000000 -319.287218 279.609895
-1162.000000 -321.282336 279.470236
-1162.000000 -323.277454 279.330578
-1162.000000 -325.272572 279.190920
-1162.000000 -327.267690 279.051262
-1162.000000 -329.262808 278.911603
-1162.000000 -331.257926 278.771945
-1162.000000 -333.253044 278.632287
-1162.000000 -335.248162 278.492629
-1162.000000 -337.243280 278.352970
-1162.000000 -339.238398 278.213312
-1162.000000 -341.233516 278.073654
-1162.000000 -343.228634 277.933996
-1162.000000 -345.223752 277.794337
-1162.000000 -347.218869 277.654679
-1162.000000 -349.213987 277.515021
-1162.000000 -351.209105 277.375363
-1162.000000 -353.204223 277.235704
-1162.000000 -355.199341 277.096046
-1162.000000 -357.194459 276.956388
-1162.000000 -359.189577 276.816730
-1162.000000 -361.184695 276.677071
-1162.000000 -363.179813 276.537413
-1162.000000 -365.174931 276.397755
-1162.000000 -367.170049 276.258097
-1162.000000 -369.165167 276.118438
-1162.000000 -371.160285 275.978780
-1162.000000 -373.155403 275.839122
-1162.000000 -375.150521 275.699464
-1162.000000 -377.145638 275.559805
-1162.000000 -379.140756 275.420147
-1162.000000 -381.135874 275.280489
-1162.000000 -383.130992 275.140831
-1162.000000 -385.126110 275.001172
-1162.000000 -387.121228 274.861514
-1162.000000 -389.116346 274.721856
-1162.000000 -391.111464 274.582198
-1162.000000 -393.106582 274.442539
-1162.000000 -395.101700 274.302881
-1162.000000 -397.096818 274.163223
-1162.000000 -399.091936 274.023564
-1162.000000 -401.087054 273.883906
-1162.000000 -403.082172 273.744248
-1162.000000 -405.077290 273.604590
-1162.000000 -407.072408 273.464931
-1162.000000 -409.067525 273.325273
-1162.000000 -411.062643 273.185615
-1162.000000 -413.057761 273.045957
-1162.000000 -415.052879 272.906298
-1162.000000 -417.047997 272.766640
-1162.000000 -419.043115 272.626982
-1162.000000 -421.038233 272.487324
-1162.000000 -423.033351 272.347665
-1162.000000 -425.028469 272.208007
