1372.000000 -240.000000 40.000000
1370.765573 -241.543033 39.691393
1369.531146 -243.086067 39.382787
1368.296720 -244.629100 39.074180
1367.062293 -246.172134 38.765573
1365.827866 -247.715167 38.456967
1364.593439 -249.258201 38.148360
1363.359012 -250.801234 37.839753
1362.124586 -252.344268 37.531146
1360.890159 -253.887301 37.222540
1359.655732 -255.430335 36.913933
1358.421305 -256.973368 36.605326
1357.186878 -258.516402 36.296720
1355.952452 -260.059435 35.988113
1354.718025 -261.602469 35.679506
1353.483598 -263.145502 35.370900
1352.249171 -264.688536 35.062293
1351.014744 -266.231569 34.753686
1349.780318 -267.774603 34.445079
1348.000000 -270.000000 34.000000
1346.837524 -271.627467 34.000000
1345.675047 -273.254934 34.000000
1344.512571 -274.882401 34.000000
1343.350094 -276.509868 34.000000
1342.187618 -278.137335 34.000000
1341.025142 -279.764802 34.000000
1339.862665 -281.392269 34.000000
1338.700189 -283.019736 34.000000
1337.537713 -284.647202 34.000000
1336.375236 -286.274669 34.000000
1335.212760 -287.902136 34.000000
1334.050283 -289.529603 34.000000
1332.887807 -291.157070 34.000000
1331.725331 -292.784537 34.000000
1330.562854 -294.412004 34.000000
1329.400378 -296.039471 34.000000
1328.237901 -297.666938 34.000000
1327.075425 -299.294405 34.000000
1325.912949 -300.921872 34.000000
1324.750472 -302.549339 34.000000
1323.587996 -304.176806 34.000000
1322.425519 -305.804273 34.000000
1321.263043 -307.431740 34.000000
1320.100567 -309.059207 34.000000
1318.000000 -312.000000 34.000000
1316.182673 -312.834624 34.026923
1314.365346 -313.669249 34.053847
1312.548019 -314.503873 34.080770
1310.730692 -315.338497 34.107693
1308.913365 -316.173121 34.134617
1307.096038 -317.007746 34.161540
1305.278711 -317.842370 34.188464
1303.461384 -318.676994 34.215387
1301.644057 -319.511618 34.242310
1299.826730 -320.346243 34.269234
1298.009403 -321.180867 34.296157
1296.192076 -322.015491 34.323080
1294.374749 -322.850115 34.350004
1292.557422 -323.684740 34.376927
1290.740095 -324.519364 34.403850
1288.922768 -325.353988 34.430774
1287.105441 -326.188612 34.457697
1285.288114 -327.023237 34.484621
1283.470787 -327.857861 34.511544
1281.653460 -328.692485 34.538467
1279.836133 -329.527109 34.565391
1278.018806 -330.361734 34.592314
1276.201479 -331.196358 34.619237
1274.384152 -332.030982 34.646161
1272.566825 -332.865606 34.673084
1270.749498 -333.700231 34.700007
1268.932171 -334.534855 34.726931
1267.114844 -335.369479 34.753854
1265.297517 -336.204104 34.780778
1263.480190 -337.038728 34.807701
1261.662863 -337.873352 34.834624
1259.845536 -338.707976 34.861548
1258.028209 -339.542601 34.888471
1256.210881 -340.377225 34.915394
1254.393554 -341.211849 34.942318
1252.576227 -342.046473 34.969241
1250.758900 -342.881098 34.996164
1248.941573 -343.715722 35.023088
1247.124246 -344.550346 35.050011
1245.306919 -345.384970 35.076935
1243.489592 -346.219595 35.103858
1241.672265 -347.054219 35.130781
1239.854938 -347.888843 35.157705
1238.037611 -348.723467 35.184628
1236.220284 -349.558092 35.211551
1234.402957 -350.392716 35.238475
1232.585630 -351.227340 35.265398
1230.768303 -352.061964 35.292321
1228.950976 -352.896589 35.319245
1227.133649 -353.731213 35.346168
1225.316322 -354.565837 35.373092
1223.498995 -355.400461 35.400015
1221.681668 -356.235086 35.426938
1219.864341 -357.069710 35.453862
1218.047014 -357.904334 35.480785
1216.229687 -358.738958 35.507708
1214.412360 -359.573583 35.534632
1212.595033 -360.408207 35.561555
1210.777706 -361.242831 35.588478
1208.960379 -362.077456 35.615402
1207.143052 -362.912080 35.642325
1205.325725 -363.746704 35.669249
1203.508398 -364.581328 35.696172
1201.691071 -365.415953 35.723095
1199.873744 -366.250577 35.750019
1198.056417 -367.085201 35.776942
1196.239090 -367.919825 35.803865
1194.421763 -368.754450 35.830789
1192.604436 -369.589074 35.857712
1190.787109 -370.423698 35.884635
1188.969782 -371.258322 35.911559
1187.152455 -372.092947 35.938482
1185.335128 -372.927571 35.965406
1183.517801 -373.762195 35.992329
1181.700474 -374.596819 36.019252
1179.883147 -375.431444 36.046176
1178.065820 -376.266068 36.073099
1176.248493 -377.100692 36.100022
1174.431166 -377.935316 36.126946
1172.613839 -378.769941 36.153869
1170.796512 -379.604565 36.180792
1168.979185 -380.439189 36.207716
1167.161858 -381.273813 36.234639
1165.344531 -382.108438 36.261563
1163.527204 -382.943062 36.288486
1161.709877 -383.777686 36.315409
1159.892550 -384.612311 36.342333
1158.075223 -385.446935 36.369256
1156.257896 -386.281559 36.396179
1154.440569 -387.116183 36.423103
1152.623242 -387.950808 36.450026
1150.805915 -388.785432 36.476949
1148.988588 -389.620056 36.503873
1147.171261 -390.454680 36.530796
1145.353934 -391.289305 36.557720
1143.536607 -392.123929 36.584643
1141.719280 -392.958553 36.611566
1139.901953 -393.793177 36.638490
1138.084626 -394.627802 36.665413
1136.267299 -395.462426 36.692336
1134.449971 -396.297050 36.719260
1132.632644 -397.131674 36.746183
1130.815317 -397.966299 36.773106
1128.997990 -398.800923 36.800030
1127.180663 -399.635547 36.826953
1125.363336 -400.470171 36.853876
1123.546009 -401.304796 36.880800
1121.728682 -402.139420 36.907723
1119.911355 -402.974044 36.934647
1118.094028 -403.808668 36.961570
1116.276701 -404.643293 36.988493
1114.459374 -405.477917 37.015417
1112.642047 -406.312541 37.042340
1110.824720 -407.147165 37.069263
1109.007393 -407.981790 37.096187
1107.190066 -408.816414 37.123110
1105.372739 -409.651038 37.150033
1103.555412 -410.485663 37.176957
1101.738085 -411.320287 37.203880
1099.920758 -412.154911 37.230804
1098.103431 -412.989535 37.257727
1096.286104 -413.824160 37.284650
1094.468777 -414.658784 37.311574
1092.651450 -415.493408 37.338497
1090.834123 -416.328032 37.365420
1089.016796 -417.162657 37.392344
1087.199469 -417.997281 37.419267
1085.382142 -418.831905 37.446190
1083.564815 -419.666529 37.473114
1081.747488 -420.501154 37.500037
1079.930161 -421.335778 37.526961
1078.112834 -422.170402 37.553884
1076.295507 -423.005026 37.580807
1074.478180 -423.839651 37.607731
1072.660853 -424.674275 37.634654
1070.843526 -425.508899 37.661577
1069.026199 -426.343523 37.688501
1067.208872 -427.178148 37.715424
1065.391545 -428.012772 37.742347
1063.574218 -428.847396 37.769271
1061.756891 -429.682020 37.796194
1059.939564 -430.516645 37.823118
1058.122237 -431.351269 37.850041
1056.304910 -432.185893 37.876964
1054.487583 -433.020518 37.903888
1052.670256 -433.855142 37.930811
1050.852929 -434.689766 37.957734
1048.000000 -436.000000 38.000000
1047.514929 -437.940285 38.000000
1047.029857 -439.880570 38.000000
1046.544786 -441.820855 38.000000
1046.059715 -443.761140 38.000000
1045.574644 -445.701425 38.000000
1045.089572 -447.641710 38.000000
1044.604501 -449.581995 38.000000
1044.000000 -452.000000 38.000000
1042.117093 -452.000000 37.325716
1040.234185 -452.000000 36.651431
1038.351278 -452.000000 35.977147
1036.468370 -452.000000 35.302862
1034.585463 -452.000000 34.628578
1032.702555 -452.000000 33.954293
1030.819648 -452.000000 33.280009
1028.936740 -452.000000 32.605725
1027.053833 -452.000000 31.931440
1025.170925 -452.000000 31.257156
1023.288018 -452.000000 30.582871
1021.405110 -452.000000 29.908587
1019.522203 -452.000000 29.234302
1017.639296 -452.000000 28.560018
1015.756388 -452.000000 27.885734
1013.873481 -452.000000 27.211449
1011.990573 -452.000000 26.537165
1010.107666 -452.000000 25.862880
1008.224758 -452.000000 25.188596
1006.341851 -452.000000 24.514311
1004.458943 -452.000000 23.840027
1002.576036 -452.000000 23.165743
1000.693128 -452.000000 22.491458
998.810221 -452.000000 21.817174
996.927313 -452.000000 21.142889
995.044406 -452.000000 20.468605
993.161499 -452.000000 19.794320
991.278591 -452.000000 19.120036
989.395684 -452.000000 18.445752
987.512776 -452.000000 17.771467
985.629869 -452.000000 17.097183
983.746961 -452.000000 16.422898
981.864054 -452.000000 15.748614
979.981146 -452.000000 15.074329
978.098239 -452.000000 14.400045
976.215331 -452.000000 13.725761
974.332424 -452.000000 13.051476
972.449516 -452.000000 12.377192
970.566609 -452.000000 11.702907
968.683702 -452.000000 11.028623
966.800794 -452.000000 10.354338
964.917887 -452.000000 9.680054
963.034979 -452.000000 9.005770
961.152072 -452.000000 8.331485
959.269164 -452.000000 7.657201
957.386257 -452.000000 6.982916
955.503349 -452.000000 6.308632
953.620442 -452.000000 5.634347
951.737534 -452.000000 4.960063
949.854627 -452.000000 4.285779
947.971719 -452.000000 3.611494
946.088812 -452.000000 2.937210
944.205905 -452.000000 2.262925
942.322997 -452.000000 1.588641
940.440090 -452.000000 0.914356
938.557182 -452.000000 0.240072
936.674275 -452.000000 -0.434212
934.791367 -452.000000 -1.108497
932.908460 -452.000000 -1.782781
931.025552 -452.000000 -2.457066
929.142645 -452.000000 -3.131350
927.259737 -452.000000 -3.805635
925.376830 -452.000000 -4.479919
923.493922 -452.000000 -5.154203
921.611015 -452.000000 -5.828488
919.728108 -452.000000 -6.502772
917.845200 -452.000000 -7.177057
915.962293 -452.000000 -7.851341
914.079385 -452.000000 -8.525626
912.196478 -452.000000 -9.199910
910.313570 -452.000000 -9.874194
908.430663 -452.000000 -10.548479
906.547755 -452.000000 -11.222763
904.664848 -452.000000 -11.897048
902.781940 -452.000000 -12.571332
900.899033 -452.000000 -13.245617
899.016125 -452.000000 -13.919901
897.133218 -452.000000 -14.594185
895.250311 -452.000000 -15.268470
893.367403 -452.000000 -15.942754
891.484496 -452.000000 -16.617039
889.601588 -452.000000 -17.291323
887.718681 -452.000000 -17.965608
885.835773 -452.000000 -18.639892
883.952866 -452.000000 -19.314176
882.069958 -452.000000 -19.988461
880.187051 -452.000000 -20.662745
878.304143 -452.000000 -21.337030
876.421236 -452.000000 -22.011314
874.538328 -452.000000 -22.685599
872.655421 -452.000000 -23.359883
870.772514 -452.000000 -24.034167
868.889606 -452.000000 -24.708452
867.006699 -452.000000 -25.382736
865.123791 -452.000000 -26.057021
863.240884 -452.000000 -26.731305
861.357976 -452.000000 -27.405590
859.475069 -452.000000 -28.079874
857.592161 -452.000000 -28.754158
855.709254 -452.000000 -29.428443
853.826346 -452.000000 -30.102727
851.943439 -452.000000 -30.777012
850.060531 -452.000000 -31.451296
848.177624 -452.000000 -32.125581
846.294717 -452.000000 -32.799865
844.411809 -452.000000 -33.474149
842.528902 -452.000000 -34.148434
840.645994 -452.000000 -34.822718
838.763087 -452.000000 -35.497003
836.880179 -452.000000 -36.171287
834.997272 -452.000000 -36.845572
833.114364 -452.000000 -37.519856
831.231457 -452.000000 -38.194140
829.348549 -452.000000 -38.868425
827.465642 -452.000000 -39.542709
825.582734 -452.000000 -40.216994
823.699827 -452.000000 -40.891278
821.816920 -452.000000 -41.565563
819.934012 -452.000000 -42.239847
818.051105 -452.000000 -42.914131
816.168197 -452.000000 -43.588416
814.285290 -452.000000 -44.262700
812.402382 -452.000000 -44.936985
810.519475 -452.000000 -45.611269
808.636567 -452.000000 -46.285554
806.753660 -452.000000 -46.959838
804.870752 -452.000000 -47.634122
802.987845 -452.000000 -48.308407
801.104937 -452.000000 -48.982691
799.222030 -452.000000 -49.656976
797.339123 -452.000000 -50.331260
795.456215 -452.000000 -51.005545
793.573308 -452.000000 -51.679829
791.690400 -452.000000 -52.354113
789.807493 -452.000000 -53.028398
787.924585 -452.000000 -53.702682
786.041678 -452.000000 -54.376967
784.158770 -452.000000 -55.051251
782.275863 -452.000000 -55.725536
780.392955 -452.000000 -56.399820
778.510048 -452.000000 -57.074104
776.627140 -452.000000 -57.748389
774.744233 -452.000000 -58.422673
772.861326 -452.000000 -59.096958
770.978418 -452.000000 -59.771242
769.095511 -452.000000 -60.445527
767.212603 -452.000000 -61.119811
765.329696 -452.000000 -61.794095
763.446788 -452.000000 -62.468380
761.563881 -452.000000 -63.142664
759.680973 -452.000000 -63.816949
757.798066 -452.000000 -64.491233
755.915158 -452.000000 -65.165518
754.032251 -452.000000 -65.839802
752.149343 -452.000000 -66.514086
750.266436 -452.000000 -67.188371
748.383529 -452.000000 -67.862655
746.500621 -452.000000 -68.536940
744.617714 -452.000000 -69.211224
742.734806 -452.000000 -69.885509
740.851899 -452.000000 -70.559793
738.968991 -452.000000 -71.234077
737.086084 -452.000000 -71.908362
735.203176 -452.000000 -72.582646
733.320269 -452.000000 -73.256931
731.437361 -452.000000 -73.931215
729.554454 -452.000000 -74.605500
727.671546 -452.000000 -75.279784
725.788639 -452.000000 -75.954068
723.905732 -452.000000 -76.628353
722.022824 -452.000000 -77.302637
720.139917 -452.000000 -77.976922
718.257009 -452.000000 -78.651206
716.374102 -452.000000 -79.325491
714.491194 -452.000000 -79.999775
712.608287 -452.000000 -80.674059
710.725379 -452.000000 -81.348344
708.842472 -452.000000 -82.022628
706.959564 -452.000000 -82.696913
705.076657 -452.000000 -83.371197
703.193749 -452.000000 -84.045482
701.310842 -452.000000 -84.719766
699.427935 -452.000000 -85.394050
697.545027 -452.000000 -86.068335
695.662120 -452.000000 -86.742619
693.779212 -452.000000 -87.416904
691.896305 -452.000000 -88.091188
690.013397 -452.000000 -88.765473
688.130490 -452.000000 -89.439757
686.247582 -452.000000 -90.114041
684.364675 -452.000000 -90.788326
682.481767 -452.000000 -91.462610
680.598860 -452.000000 -92.136895
678.715952 -452.000000 -92.811179
676.833045 -452.000000 -93.485464
674.950138 -452.000000 -94.159748
673.067230 -452.000000 -94.834032
671.184323 -452.000000 -95.508317
669.301415 -452.000000 -96.182601
667.418508 -452.000000 -96.856886
665.535600 -452.000000 -97.531170
663.652693 -452.000000 -98.205455
661.769785 -452.000000 -98.879739
659.886878 -452.000000 -99.554023
658.003970 -452.000000 -100.228308
656.121063 -452.000000 -100.902592
654.238155 -452.000000 -101.576877
652.355248 -452.000000 -102.251161
650.472341 -452.000000 -102.925446
648.589433 -452.000000 -103.599730
646.706526 -452.000000 -104.274014
644.823618 -452.000000 -104.948299
642.940711 -452.000000 -105.622583
641.057803 -452.000000 -106.296868
639.174896 -452.000000 -106.971152
637.291988 -452.000000 -107.645437
635.409081 -452.000000 -108.319721
633.526173 -452.000000 -108.994005
631.643266 -452.000000 -109.668290
629.760358 -452.000000 -110.342574
627.877451 -452.000000 -111.016859
625.994544 -452.000000 -111.691143
624.111636 -452.000000 -112.365428
622.228729 -452.000000 -113.039712
620.345821 -452.000000 -113.713996
618.462914 -452.000000 -114.388281
616.580006 -452.000000 -115.062565
614.697099 -452.000000 -115.736850
612.814191 -452.000000 -116.411134
610.931284 -452.000000 -117.085419
609.048376 -452.000000 -117.759703
607.165469 -452.000000 -118.433987
605.282561 -452.000000 -119.108272
603.399654 -452.000000 -119.782556
601.516747 -452.000000 -120.456841
599.633839 -452.000000 -121.131125
597.750932 -452.000000 -121.805410
595.868024 -452.000000 -122.479694
593.985117 -452.000000 -123.153978
592.102209 -452.000000 -123.828263
590.219302 -452.000000 -124.502547
588.336394 -452.000000 -125.176832
586.453487 -452.000000 -125.851116
584.570579 -452.000000 -126.525401
582.687672 -452.000000 -127.199685
580.804764 -452.000000 -127.873969
578.921857 -452.000000 -128.548254
577.038950 -452.000000 -129.222538
575.156042 -452.000000 -129.896823
573.273135 -452.000000 -130.571107
571.390227 -452.000000 -131.245392
569.507320 -452.000000 -131.919676
567.624412 -452.000000 -132.593960
565.741505 -452.000000 -133.268245
563.858597 -452.000000 -133.942529
561.975690 -452.000000 -134.616814
560.092782 -452.000000 -135.291098
558.209875 -452.000000 -135.965383
556.326967 -452.000000 -136.639667
554.444060 -452.000000 -137.313951
552.561153 -452.000000 -137.988236
550.678245 -452.000000 -138.662520
548.795338 -452.000000 -139.336805
546.912430 -452.000000 -140.011089
545.029523 -452.000000 -140.685374
543.146615 -452.000000 -141.359658
541.263708 -452.000000 -142.033942
539.380800 -452.000000 -142.708227
537.497893 -452.000000 -143.382511
535.614985 -452.000000 -144.056796
533.732078 -452.000000 -144.731080
531.849170 -452.000000 -145.405365
529.966263 -452.000000 -146.079649
528.083356 -452.000000 -146.753933
526.200448 -452.000000 -147.428218
524.317541 -452.000000 -148.102502
522.434633 -452.000000 -148.776787
520.551726 -452.000000 -149.451071
518.668818 -452.000000 -150.125356
516.785911 -452.000000 -150.799640
514.903003 -452.000000 -151.473924
513.020096 -452.000000 -152.148209
511.137188 -452.000000 -152.822493
509.254281 -452.000000 -153.496778
507.371373 -452.000000 -154.171062
505.488466 -452.000000 -154.845347
503.605559 -452.000000 -155.519631
501.722651 -452.000000 -156.193916
499.839744 -452.000000 -156.868200
497.956836 -452.000000 -157.542484
496.073929 -452.000000 -158.216769
494.191021 -452.000000 -158.891053
492.308114 -452.000000 -159.565338
490.425206 -452.000000 -160.239622
488.542299 -452.000000 -160.913907
486.659391 -452.000000 -161.588191
484.776484 -452.000000 -162.262475
482.893576 -452.000000 -162.936760
481.010669 -452.000000 -163.611044
479.127762 -452.000000 -164.285329
477.244854 -452.000000 -164.959613
475.361947 -452.000000 -165.633898
473.479039 -452.000000 -166.308182
471.596132 -452.000000 -166.982466
469.713224 -452.000000 -167.656751
467.830317 -452.000000 -168.331035
465.947409 -452.000000 -169.005320
464.064502 -452.000000 -169.679604
462.181594 -452.000000 -170.353889
460.298687 -452.000000 -171.028173
458.415779 -452.000000 -171.702457
456.532872 -452.000000 -172.376742
454.649965 -452.000000 -173.051026
452.000000 -452.000000 -174.000000
450.385001 -451.461667 -175.049750
448.770001 -450.923334 -176.099499
447.155002 -450.385001 -177.149249
445.540002 -449.846667 -178.198999
443.925003 -449.308334 -179.248748
442.310003 -448.770001 -180.298498
440.695004 -448.231668 -181.348247
439.080005 -447.693335 -182.397997
437.465005 -447.155002 -183.447747
435.850006 -446.616669 -184.497496
434.235006 -446.078335 -185.547246
432.620007 -445.540002 -186.596996
431.005007 -445.001669 -187.646745
429.390008 -444.463336 -188.696495
427.775009 -443.925003 -189.746244
426.160009 -443.386670 -190.795994
424.545010 -442.848337 -191.845744
422.930010 -442.310003 -192.895493
421.315011 -441.771670 -193.945243
419.700011 -441.233337 -194.994993
418.085012 -440.695004 -196.044742
416.470013 -440.156671 -197.094492
414.855013 -439.618338 -198.144241
413.240014 -439.080005 -199.193991
411.625014 -438.541671 -200.243741
410.010015 -438.003338 -201.293490
408.395015 -437.465005 -202.343240
406.780016 -436.926672 -203.392990
405.165017 -436.388339 -204.442739
403.550017 -435.850006 -205.492489
401.935018 -435.311673 -206.542238
400.320018 -434.773339 -207.591988
398.705019 -434.235006 -208.641738
397.090019 -433.696673 -209.691487
395.475020 -433.158340 -210.741237
393.860021 -432.620007 -211.790987
392.245021 -432.081674 -212.840736
390.630022 -431.543341 -213.890486
389.015022 -431.005007 -214.940235
387.400023 -430.466674 -215.989985
385.785024 -429.928341 -217.039735
384.170024 -429.390008 -218.089484
382.555025 -428.851675 -219.139234
380.940025 -428.313342 -220.188984
379.325026 -427.775009 -221.238733
377.710026 -427.236675 -222.288483
376.095027 -426.698342 -223.338232
374.480028 -426.160009 -224.387982
372.865028 -425.621676 -225.437732
371.250029 -425.083343 -226.487481
369.635029 -424.545010 -227.537231
368.020030 -424.006677 -228.586981
366.405030 -423.468343 -229.636730
364.790031 -422.930010 -230.686480
363.175032 -422.391677 -231.736230
361.560032 -421.853344 -232.785979
359.945033 -421.315011 -233.835729
358.330033 -420.776678 -234.885478
356.715034 -420.238345 -235.935228
355.100034 -419.700011 -236.984978
353.485035 -419.161678 -238.034727
351.870036 -418.623345 -239.084477
350.255036 -418.085012 -240.134227
348.640037 -417.546679 -241.183976
347.025037 -417.008346 -242.233726
345.410038 -416.470013 -243.283475
343.795038 -415.931679 -244.333225
342.180039 -415.393346 -245.382975
340.565040 -414.855013 -246.432724
338.950040 -414.316680 -247.482474
337.335041 -413.778347 -248.532224
335.720041 -413.240014 -249.581973
334.105042 -412.701681 -250.631723
332.000000 -412.000000 -252.000000
330.000000 -412.000000 -252.000000
328.000000 -412.000000 -252.000000
326.000000 -412.000000 -252.000000
324.000000 -412.000000 -252.000000
322.000000 -412.000000 -252.000000
320.000000 -412.000000 -252.000000
318.000000 -412.000000 -252.000000
316.000000 -412.000000 -252.000000
314.000000 -412.000000 -252.000000
312.000000 -412.000000 -252.000000
310.000000 -412.000000 -252.000000
308.000000 -412.000000 -252.000000
306.000000 -412.000000 -252.000000
304.000000 -412.000000 -252.000000
302.000000 -412.000000 -252.000000
300.000000 -412.000000 -252.000000
298.000000 -412.000000 -252.000000
296.000000 -412.000000 -252.000000
294.000000 -412.000000 -252.000000
292.000000 -412.000000 -252.000000
290.000000 -412.000000 -252.000000
288.000000 -412.000000 -252.000000
286.000000 -412.000000 -252.000000
284.000000 -412.000000 -252.000000
282.000000 -412.000000 -252.000000
280.000000 -412.000000 -252.000000
278.000000 -412.000000 -252.000000
276.000000 -412.000000 -252.000000
274.000000 -412.000000 -252.000000
272.000000 -412.000000 -252.000000
270.000000 -412.000000 -252.000000
268.000000 -412.000000 -252.000000
266.000000 -412.000000 -252.000000
264.000000 -412.000000 -252.000000
262.000000 -412.000000 -252.000000
260.000000 -412.000000 -252.000000
258.000000 -412.000000 -252.000000
256.000000 -412.000000 -252.000000
254.000000 -412.000000 -252.000000
252.000000 -412.000000 -252.000000
250.000000 -412.000000 -252.000000
248.000000 -412.000000 -252.000000
246.000000 -412.000000 -252.000000
244.000000 -412.000000 -252.000000
242.000000 -412.000000 -252.000000
240.000000 -412.000000 -252.000000
238.000000 -412.000000 -252.000000
236.000000 -412.000000 -252.000000
234.000000 -412.000000 -252.000000
232.000000 -412.000000 -252.000000
230.000000 -412.000000 -252.000000
228.000000 -412.000000 -252.000000
226.000000 -412.000000 -252.000000
224.000000 -412.000000 -252.000000
222.000000 -412.000000 -252.000000
220.000000 -412.000000 -252.000000
218.000000 -412.000000 -252.000000
216.000000 -412.000000 -252.000000
214.000000 -412.000000 -252.000000
212.000000 -412.000000 -252.000000
210.000000 -412.000000 -252.000000
208.000000 -412.000000 -252.000000
206.000000 -412.000000 -252.000000
204.000000 -412.000000 -252.000000
202.000000 -412.000000 -252.000000
200.000000 -412.000000 -252.000000
198.000000 -412.000000 -252.000000
196.000000 -412.000000 -252.000000
194.000000 -412.000000 -252.000000
192.000000 -412.000000 -252.000000
190.000000 -412.000000 -252.000000
188.000000 -412.000000 -252.000000
186.000000 -412.000000 -252.000000
184.000000 -412.000000 -252.000000
182.000000 -412.000000 -252.000000
180.000000 -412.000000 -252.000000
178.000000 -412.000000 -252.000000
176.000000 -412.000000 -252.000000
174.000000 -412.000000 -252.000000
172.000000 -412.000000 -252.000000
170.000000 -412.000000 -252.000000
168.000000 -412.000000 -252.000000
166.000000 -412.000000 -252.000000
164.000000 -412.000000 -252.000000
162.000000 -412.000000 -252.000000
160.000000 -412.000000 -252.000000
158.000000 -412.000000 -252.000000
156.000000 -412.000000 -252.000000
154.000000 -412.000000 -252.000000
152.000000 -412.000000 -252.000000
150.000000 -412.000000 -252.000000
148.000000 -412.000000 -252.000000
146.000000 -412.000000 -252.000000
144.000000 -412.000000 -252.000000
142.000000 -412.000000 -252.000000
140.000000 -412.000000 -252.000000
138.000000 -412.000000 -252.000000
136.000000 -412.000000 -252.000000
134.000000 -412.000000 -252.000000
132.000000 -412.000000 -252.000000
130.000000 -412.000000 -252.000000
128.000000 -412.000000 -252.000000
126.000000 -412.000000 -252.000000
124.000000 -412.000000 -252.000000
122.000000 -412.000000 -252.000000
120.000000 -412.000000 -252.000000
118.000000 -412.000000 -252.000000
116.000000 -412.000000 -252.000000
114.000000 -412.000000 -252.000000
112.000000 -412.000000 -252.000000
110.000000 -412.000000 -252.000000
108.000000 -412.000000 -252.000000
106.000000 -412.000000 -252.000000
104.000000 -412.000000 -252.000000
102.000000 -412.000000 -252.000000
100.000000 -412.000000 -252.000000
98.000000 -412.000000 -252.000000
96.000000 -412.000000 -252.000000
94.000000 -412.000000 -252.000000
92.000000 -412.000000 -252.000000
90.000000 -412.000000 -252.000000
88.000000 -412.000000 -252.000000
86.000000 -412.000000 -252.000000
84.000000 -412.000000 -252.000000
82.000000 -412.000000 -252.000000
80.000000 -412.000000 -252.000000
78.000000 -412.000000 -252.000000
76.000000 -412.000000 -252.000000
74.000000 -412.000000 -252.000000
72.000000 -412.000000 -252.000000
70.000000 -412.000000 -252.000000
68.000000 -412.000000 -252.000000
66.000000 -412.000000 -252.000000
64.000000 -412.000000 -252.000000
60.000000 -412.000000 -252.000000
58.000000 -412.000000 -252.000000
56.000000 -412.000000 -252.000000
54.000000 -412.000000 -252.000000
52.000000 -412.000000 -252.000000
50.000000 -412.000000 -252.000000
48.000000 -412.000000 -252.000000
46.000000 -412.000000 -252.000000
44.000000 -412.000000 -252.000000
42.000000 -412.000000 -252.000000
40.000000 -412.000000 -252.000000
38.000000 -412.000000 -252.000000
36.000000 -412.000000 -252.000000
34.000000 -412.000000 -252.000000
32.000000 -412.000000 -252.000000
30.000000 -412.000000 -252.000000
28.000000 -412.000000 -252.000000
26.000000 -412.000000 -252.000000
24.000000 -412.000000 -252.000000
22.000000 -412.000000 -252.000000
20.000000 -412.000000 -252.000000
18.000000 -412.000000 -252.000000
16.000000 -412.000000 -252.000000
14.000000 -412.000000 -252.000000
12.000000 -412.000000 -252.000000
10.000000 -412.000000 -252.000000
8.000000 -412.000000 -252.000000
6.000000 -412.000000 -252.000000
4.000000 -412.000000 -252.000000
2.000000 -412.000000 -252.000000
0.000000 -412.000000 -252.000000
-2.000000 -412.000000 -252.000000
-4.000000 -412.000000 -252.000000
-6.000000 -412.000000 -252.000000
-8.000000 -412.000000 -252.000000
-10.000000 -412.000000 -252.000000
-12.000000 -412.000000 -252.000000
-14.000000 -412.000000 -252.000000
-16.000000 -412.000000 -252.000000
-18.000000 -412.000000 -252.000000
-20.000000 -412.000000 -252.000000
-22.000000 -412.000000 -252.000000
-24.000000 -412.000000 -252.000000
-26.000000 -412.000000 -252.000000
-28.000000 -412.000000 -252.000000
-30.000000 -412.000000 -252.000000
-32.000000 -412.000000 -252.000000
-34.000000 -412.000000 -252.000000
-36.000000 -412.000000 -252.000000
-38.000000 -412.000000 -252.000000
-40.000000 -412.000000 -252.000000
-42.000000 -412.000000 -252.000000
-44.000000 -412.000000 -252.000000
-46.000000 -412.000000 -252.000000
-48.000000 -412.000000 -252.000000
-50.000000 -412.000000 -252.000000
-52.000000 -412.000000 -252.000000
-54.000000 -412.000000 -252.000000
-56.000000 -412.000000 -252.000000
-58.000000 -412.000000 -252.000000
-60.000000 -412.000000 -252.000000
