1372.000000 -240.000000 40.000000
1371.576001 -238.092004 39.576001
1371.152002 -236.184008 39.152002
1370.728003 -234.276011 38.728003
1370.304003 -232.368015 38.304003
1369.880004 -230.460019 37.880004
1369.456005 -228.552023 37.456005
1369.032006 -226.644027 37.032006
1368.608007 -224.736031 36.608007
1368.000000 -222.000000 36.000000
1366.088442 -221.411828 36.000000
1364.176884 -220.823657 36.000000
1362.265326 -220.235485 36.000000
1360.353768 -219.647313 36.000000
1358.442210 -219.059142 36.000000
1356.530652 -218.470970 36.000000
1354.619094 -217.882798 36.000000
1352.707536 -217.294626 36.000000
1350.795978 -216.706455 36.000000
1348.884420 -216.118283 36.000000
1346.972862 -215.530111 36.000000
1345.061304 -214.941940 36.000000
1343.149746 -214.353768 36.000000
1341.238188 -213.765596 36.000000
1339.326630 -213.177425 36.000000
1337.415072 -212.589253 36.000000
1335.503514 -212.001081 36.000000
1333.591956 -211.412909 36.000000
1331.680398 -210.824738 36.000000
1329.768840 -210.236566 36.000000
1327.857282 -209.648394 36.000000
1325.945724 -209.060223 36.000000
1324.034166 -208.472051 36.000000
1322.122608 -207.883879 36.000000
1320.211050 -207.295708 36.000000
1318.299492 -206.707536 36.000000
1316.000000 -206.000000 36.000000
1314.006925 -205.836389 36.029747
1312.013851 -205.672779 36.059495
1310.020776 -205.509168 36.089242
1308.027701 -205.345558 36.118990
1306.034627 -205.181947 36.148737
1304.041552 -205.018336 36.178484
1302.048477 -204.854726 36.208232
1300.055403 -204.691115 36.237979
1298.062328 -204.527505 36.267726
1296.069253 -204.363894 36.297474
1294.076179 -204.200283 36.327221
1292.083104 -204.036673 36.356969
1290.090029 -203.873062 36.386716
1288.096955 -203.709451 36.416463
1286.103880 -203.545841 36.446211
1284.110805 -203.382230 36.475958
1282.117731 -203.218620 36.505706
1280.124656 -203.055009 36.535453
1278.131581 -202.891398 36.565200
1276.138506 -202.727788 36.594948
1274.145432 -202.564177 36.624695
1272.152357 -202.400567 36.654442
1270.159282 -202.236956 36.684190
1268.166208 -202.073345 36.713937
1266.173133 -201.909735 36.743685
1264.180058 -201.746124 36.773432
1262.186984 -201.582514 36.803179
1260.193909 -201.418903 36.832927
1258.200834 -201.255292 36.862674
1256.207760 -201.091682 36.892421
1254.214685 -200.928071 36.922169
1252.221610 -200.764461 36.951916
1250.228536 -200.600850 36.981664
1248.235461 -200.437239 37.011411
1246.242386 -200.273629 37.041158
1244.249312 -200.110018 37.070906
1242.256237 -199.946408 37.100653
1240.263162 -199.782797 37.130401
1238.270088 -199.619186 37.160148
1236.277013 -199.455576 37.189895
1234.283938 -199.291965 37.219643
1232.290864 -199.128354 37.249390
1230.297789 -198.964744 37.279137
1228.304714 -198.801133 37.308885
1226.311640 -198.637523 37.338632
1224.318565 -198.473912 37.368380
1222.325490 -198.310301 37.398127
1220.332416 -198.146691 37.427874
1218.339341 -197.983080 37.457622
1216.346266 -197.819470 37.487369
1214.353192 -197.655859 37.517117
1212.360117 -197.492248 37.546864
1210.367042 -197.328638 37.576611
1208.373968 -197.165027 37.606359
1206.380893 -197.001417 37.636106
1204.387818 -196.837806 37.665853
1202.394743 -196.674195 37.695601
1200.401669 -196.510585 37.725348
1198.408594 -196.346974 37.755096
1196.415519 -196.183364 37.784843
1194.422445 -196.019753 37.814590
1192.429370 -195.856142 37.844338
1190.436295 -195.692532 37.874085
1188.443221 -195.528921 37.903833
1186.450146 -195.365310 37.933580
1184.457071 -195.201700 37.963327
1182.463997 -195.038089 37.993075
1180.470922 -194.874479 38.022822
1178.477847 -194.710868 38.052569
1176.484773 -194.547257 38.082317
1174.491698 -194.383647 38.112064
1172.498623 -194.220036 38.141812
1170.505549 -194.056426 38.171559
1168.512474 -193.892815 38.201306
1166.519399 -193.729204 38.231054
1164.526325 -193.565594 38.260801
1162.533250 -193.401983 38.290549
1160.540175 -193.238373 38.320296
1158.547101 -193.074762 38.350043
1156.554026 -192.911151 38.379791
1154.560951 -192.747541 38.409538
1152.567877 -192.583930 38.439285
1150.574802 -192.420320 38.469033
1148.581727 -192.256709 38.498780
1146.588653 -192.093098 38.528528
1144.595578 -191.929488 38.558275
1142.602503 -191.765877 38.588022
1140.609429 -191.602267 38.617770
1138.616354 -191.438656 38.647517
1136.623279 -191.275045 38.677264
1134.630205 -191.111435 38.707012
1132.637130 -190.947824 38.736759
1130.644055 -190.784213 38.766507
1128.650981 -190.620603 38.796254
1126.657906 -190.456992 38.826001
1124.664831 -190.293382 38.855749
1122.671756 -190.129771 38.885496
1120.678682 -189.966160 38.915244
1118.685607 -189.802550 38.944991
1116.692532 -189.638939 38.974738
1114.699458 -189.475329 39.004486
1112.706383 -189.311718 39.034233
1110.713308 -189.148107 39.063980
1108.720234 -188.984497 39.093728
1106.727159 -188.820886 39.123475
1104.734084 -188.657276 39.153223
1102.741010 -188.493665 39.182970
1100.747935 -188.330054 39.212717
1098.754860 -188.166444 39.242465
1096.761786 -188.002833 39.272212
1094.768711 -187.839223 39.301960
1092.775636 -187.675612 39.331707
1090.782562 -187.512001 39.361454
1088.789487 -187.348391 39.391202
1086.796412 -187.184780 39.420949
1084.803338 -187.021170 39.450696
1082.810263 -186.857559 39.480444
1080.817188 -186.693948 39.510191
1078.824114 -186.530338 39.539939
1076.831039 -186.366727 39.569686
1074.837964 -186.203116 39.599433
1072.844890 -186.039506 39.629181
1070.851815 -185.875895 39.658928
1068.858740 -185.712285 39.688676
1066.865666 -185.548674 39.718423
1064.872591 -185.385063 39.748170
1062.879516 -185.221453 39.777918
1060.886442 -185.057842 39.807665
1058.893367 -184.894232 39.837412
1056.900292 -184.730621 39.867160
1054.907218 -184.567010 39.896907
1052.914143 -184.403400 39.926655
1050.921068 -184.239789 39.956402
1048.000000 -184.000000 40.000000
1047.968258 -185.999748 40.000000
1047.936516 -187.999496 40.000000
1047.904774 -189.999244 40.000000
1047.873032 -191.998992 40.000000
1047.841290 -193.998740 40.000000
1047.809548 -195.998489 40.000000
1047.777806 -197.998237 40.000000
1047.746064 -199.997985 40.000000
1047.714322 -201.997733 40.000000
1047.682580 -203.997481 40.000000
1047.650838 -205.997229 40.000000
1047.619096 -207.996977 40.000000
1047.587354 -209.996725 40.000000
1047.555612 -211.996473 40.000000
1047.523870 -213.996221 40.000000
1047.492127 -215.995970 40.000000
1047.460385 -217.995718 40.000000
1047.428643 -219.995466 40.000000
1047.396901 -221.995214 40.000000
1047.365159 -223.994962 40.000000
1047.333417 -225.994710 40.000000
1047.301675 -227.994458 40.000000
1047.269933 -229.994206 40.000000
1047.238191 -231.993954 40.000000
1047.206449 -233.993702 40.000000
1047.174707 -235.993450 40.000000
1047.142965 -237.993199 40.000000
1047.111223 -239.992947 40.000000
1047.079481 -241.992695 40.000000
1047.047739 -243.992443 40.000000
1047.015997 -245.992191 40.000000
1046.984255 -247.991939 40.000000
1046.952513 -249.991687 40.000000
1046.920771 -251.991435 40.000000
1046.889029 -253.991183 40.000000
1046.857287 -255.990931 40.000000
1046.825545 -257.990680 40.000000
1046.793803 -259.990428 40.000000
1046.762061 -261.990176 40.000000
1046.730319 -263.989924 40.000000
1046.698577 -265.989672 40.000000
1046.666835 -267.989420 40.000000
1046.635093 -269.989168 40.000000
1046.603351 -271.988916 40.000000
1046.571609 -273.988664 40.000000
1046.539866 -275.988412 40.000000
1046.508124 -277.988160 40.000000
1046.476382 -279.987909 40.000000
1046.444640 -281.987657 40.000000
1046.412898 -283.987405 40.000000
1046.381156 -285.987153 40.000000
1046.349414 -287.986901 40.000000
1046.317672 -289.986649 40.000000
1046.285930 -291.986397 40.000000
1046.254188 -293.986145 40.000000
1046.222446 -295.985893 40.000000
1046.190704 -297.985641 40.000000
1046.158962 -299.985390 40.000000
1046.127220 -301.985138 40.000000
1046.095478 -303.984886 40.000000
1046.063736 -305.984634 40.000000
1046.031994 -307.984382 40.000000
1046.000252 -309.984130 40.000000
1045.968510 -311.983878 40.000000
1045.936768 -313.983626 40.000000
1045.905026 -315.983374 40.000000
1045.873284 -317.983122 40.000000
1045.841542 -319.982870 40.000000
1045.809800 -321.982619 40.000000
1045.778058 -323.982367 40.000000
1045.746316 -325.982115 40.000000
1045.714574 -327.981863 40.000000
1045.682832 -329.981611 40.000000
1045.651090 -331.981359 40.000000
1045.619348 -333.981107 40.000000
1045.587605 -335.980855 40.000000
1045.555863 -337.980603 40.000000
1045.524121 -339.980351 40.000000
1045.492379 -341.980100 40.000000
1045.460637 -343.979848 40.000000
1045.428895 -345.979596 40.000000
1045.397153 -347.979344 40.000000
1045.365411 -349.979092 40.000000
1045.333669 -351.978840 40.000000
1045.301927 -353.978588 40.000000
1045.270185 -355.978336 40.000000
1045.238443 -357.978084 40.000000
1045.206701 -359.977832 40.000000
1045.174959 -361.977580 40.000000
1045.143217 -363.977329 40.000000
1045.111475 -365.977077 40.000000
1045.079733 -367.976825 40.000000
1045.047991 -369.976573 40.000000
1045.016249 -371.976321 40.000000
1044.984507 -373.976069 40.000000
1044.952765 -375.975817 40.000000
1044.921023 -377.975565 40.000000
1044.889281 -379.975313 40.000000
1044.857539 -381.975061 40.000000
1044.825797 -383.974809 40.000000
1044.794055 -385.974558 40.000000
1044.762313 -387.974306 40.000000
1044.730571 -389.974054 40.000000
1044.698829 -391.973802 40.000000
1044.667087 -393.973550 40.000000
1044.635344 -395.973298 40.000000
1044.603602 -397.973046 40.000000
1044.571860 -399.972794 40.000000
1044.540118 -401.972542 40.000000
1044.508376 -403.972290 40.000000
1044.476634 -405.972039 40.000000
1044.444892 -407.971787 40.000000
1044.413150 -409.971535 40.000000
1044.381408 -411.971283 40.000000
1044.349666 -413.971031 40.000000
1044.317924 -415.970779 40.000000
1044.286182 -417.970527 40.000000
1044.254440 -419.970275 40.000000
1044.222698 -421.970023 40.000000
1044.190956 -423.969771 40.000000
1044.159214 -425.969519 40.000000
1044.127472 -427.969268 40.000000
1044.095730 -429.969016 40.000000
1044.063988 -431.968764 40.000000
1044.032246 -433.968512 40.000000
1044.000000 -436.000000 40.000000
1042.143683 -436.268135 39.305600
1040.287366 -436.536269 38.611200
1038.431049 -436.804404 37.916800
1036.574732 -437.072539 37.222400
1034.718416 -437.340673 36.528000
1032.862099 -437.608808 35.833600
1031.005782 -437.876943 35.139200
1029.149465 -438.145077 34.444800
1027.293148 -438.413212 33.750400
1025.436831 -438.681347 33.056000
1023.580514 -438.949481 32.361600
1021.724197 -439.217616 31.667200
1019.867880 -439.485751 30.972800
1018.011563 -439.753885 30.278400
1016.155247 -440.022020 29.584000
1014.298930 -440.290155 28.889600
1012.442613 -440.558289 28.195200
1010.586296 -440.826424 27.500800
1008.729979 -441.094559 26.806400
1006.873662 -441.362693 26.112000
1005.017345 -441.630828 25.417600
1003.161028 -441.898963 24.723199
1001.304711 -442.167097 24.028799
999.448395 -442.435232 23.334399
997.592078 -442.703367 22.639999
995.735761 -442.971501 21.945599
993.879444 -443.239636 21.251199
992.023127 -443.507771 20.556799
990.166810 -443.775905 19.862399
988.310493 -444.044040 19.167999
986.454176 -444.312175 18.473599
984.597859 -444.580309 17.779199
982.741543 -444.848444 17.084799
980.885226 -445.116579 16.390399
979.028909 -445.384713 15.695999
977.172592 -445.652848 15.001599
975.316275 -445.920983 14.307199
973.459958 -446.189117 13.612799
971.603641 -446.457252 12.918399
969.747324 -446.725386 12.223999
967.891007 -446.993521 11.529599
966.034690 -447.261656 10.835199
964.178374 -447.529790 10.140799
962.322057 -447.797925 9.446399
960.465740 -448.066060 8.751999
958.609423 -448.334194 8.057599
956.753106 -448.602329 7.363199
954.896789 -448.870464 6.668799
953.040472 -449.138598 5.974399
951.184155 -449.406733 5.279999
949.327838 -449.674868 4.585599
947.471522 -449.943002 3.891199
945.615205 -450.211137 3.196799
943.758888 -450.479272 2.502399
941.902571 -450.747406 1.807999
940.046254 -451.015541 1.113599
938.189937 -451.283676 0.419199
936.333620 -451.551810 -0.275201
934.477303 -451.819945 -0.969601
932.620986 -452.088080 -1.664001
930.764669 -452.356214 -2.358401
928.908353 -452.624349 -3.052801
927.052036 -452.892484 -3.747201
925.195719 -453.160618 -4.441601
923.339402 -453.428753 -5.136002
921.483085 -453.696888 -5.830402
919.626768 -453.965022 -6.524802
917.770451 -454.233157 -7.219202
915.914134 -454.501292 -7.913602
914.057817 -454.769426 -8.608002
912.201501 -455.037561 -9.302402
910.345184 -455.305696 -9.996802
908.488867 -455.573830 -10.691202
906.632550 -455.841965 -11.385602
904.776233 -456.110100 -12.080002
902.919916 -456.378234 -12.774402
901.063599 -456.646369 -13.468802
899.207282 -456.914504 -14.163202
897.350965 -457.182638 -14.857602
895.494648 -457.450773 -15.552002
893.638332 -457.718908 -16.246402
891.782015 -457.987042 -16.940802
889.925698 -458.255177 -17.635202
888.069381 -458.523312 -18.329602
886.213064 -458.791446 -19.024002
884.356747 -459.059581 -19.718402
882.500430 -459.327716 -20.412802
880.644113 -459.595850 -21.107202
878.787796 -459.863985 -21.801602
876.931480 -460.132120 -22.496002
875.075163 -460.400254 -23.190402
873.218846 -460.668389 -23.884802
871.362529 -460.936524 -24.579202
869.506212 -461.204658 -25.273602
867.649895 -461.472793 -25.968002
865.793578 -461.740928 -26.662402
863.937261 -462.009062 -27.356802
862.080944 -462.277197 -28.051202
860.224628 -462.545332 -28.745602
858.368311 -462.813466 -29.440002
856.511994 -463.081601 -30.134402
854.655677 -463.349736 -30.828802
852.799360 -463.617870 -31.523202
850.943043 -463.886005 -32.217602
849.086726 -464.154140 -32.912002
847.230409 -464.422274 -33.606402
845.374092 -464.690409 -34.300802
843.517775 -464.958544 -34.995203
841.661459 -465.226678 -35.689603
839.805142 -465.494813 -36.384003
837.948825 -465.762948 -37.078403
836.092508 -466.031082 -37.772803
834.236191 -466.299217 -38.467203
832.379874 -466.567352 -39.161603
830.523557 -466.835486 -39.856003
828.667240 -467.103621 -40.550403
826.810923 -467.371756 -41.244803
824.954607 -467.639890 -41.939203
823.098290 -467.908025 -42.633603
821.241973 -468.176159 -43.328003
819.385656 -468.444294 -44.022403
817.529339 -468.712429 -44.716803
815.673022 -468.980563 -45.411203
813.816705 -469.248698 -46.105603
811.960388 -469.516833 -46.800003
810.104071 -469.784967 -47.494403
808.247754 -470.053102 -48.188803
806.391438 -470.321237 -48.883203
804.535121 -470.589371 -49.577603
802.678804 -470.857506 -50.272003
800.822487 -471.125641 -50.966403
798.966170 -471.393775 -51.660803
797.109853 -471.661910 -52.355203
795.253536 -471.930045 -53.049603
793.397219 -472.198179 -53.744003
791.540902 -472.466314 -54.438403
789.684586 -472.734449 -55.132803
787.828269 -473.002583 -55.827203
785.971952 -473.270718 -56.521603
784.115635 -473.538853 -57.216003
782.259318 -473.806987 -57.910403
780.403001 -474.075122 -58.604803
778.546684 -474.343257 -59.299203
776.690367 -474.611391 -59.993603
774.834050 -474.879526 -60.688003
772.977733 -475.147661 -61.382403
771.121417 -475.415795 -62.076803
769.265100 -475.683930 -62.771203
767.408783 -475.952065 -63.465603
765.552466 -476.220199 -64.160003
763.696149 -476.488334 -64.854404
761.839832 -476.756469 -65.548804
759.983515 -477.024603 -66.243204
758.127198 -477.292738 -66.937604
756.270881 -477.560873 -67.632004
754.414565 -477.829007 -68.326404
752.558248 -478.097142 -69.020804
750.701931 -478.365277 -69.715204
748.845614 -478.633411 -70.409604
746.989297 -478.901546 -71.104004
745.132980 -479.169681 -71.798404
743.276663 -479.437815 -72.492804
741.420346 -479.705950 -73.187204
739.564029 -479.974085 -73.881604
737.707713 -480.242219 -74.576004
735.851396 -480.510354 -75.270404
733.995079 -480.778489 -75.964804
732.138762 -481.046623 -76.659204
730.282445 -481.314758 -77.353604
728.426128 -481.582893 -78.048004
726.569811 -481.851027 -78.742404
724.713494 -482.119162 -79.436804
722.857177 -482.387297 -80.131204
721.000860 -482.655431 -80.825604
719.144544 -482.923566 -81.520004
717.288227 -483.191701 -82.214404
715.431910 -483.459835 -82.908804
713.575593 -483.727970 -83.603204
711.719276 -483.996105 -84.297604
709.862959 -484.264239 -84.992004
708.006642 -484.532374 -85.686404
706.150325 -484.800509 -86.380804
704.294008 -485.068643 -87.075204
702.437692 -485.336778 -87.769604
700.581375 -485.604913 -88.464004
698.725058 -485.873047 -89.158404
696.868741 -486.141182 -89.852804
695.012424 -486.409317 -90.547204
693.156107 -486.677451 -91.241604
691.299790 -486.945586 -91.936004
689.443473 -487.213721 -92.630404
687.587156 -487.481855 -93.324804
685.730839 -487.749990 -94.019204
683.874523 -488.018125 -94.713605
682.018206 -488.286259 -95.408005
680.161889 -488.554394 -96.102405
678.305572 -488.822529 -96.796805
676.449255 -489.090663 -97.491205
674.592938 -489.358798 -98.185605
672.736621 -489.626932 -98.880005
670.880304 -489.895067 -99.574405
669.023987 -490.163202 -100.268805
667.167671 -490.431336 -100.963205
665.311354 -490.699471 -101.657605
663.455037 -490.967606 -102.352005
661.598720 -491.235740 -103.046405
659.742403 -491.503875 -103.740805
657.886086 -491.772010 -104.435205
656.029769 -492.040144 -105.129605
654.173452 -492.308279 -105.824005
652.317135 -492.576414 -106.518405
650.460818 -492.844548 -107.212805
648.604502 -493.112683 -107.907205
646.748185 -493.380818 -108.601605
644.891868 -493.648952 -109.296005
643.035551 -493.917087 -109.990405
641.179234 -494.185222 -110.684805
639.322917 -494.453356 -111.379205
637.466600 -494.721491 -112.073605
635.610283 -494.989626 -112.768005
633.753966 -495.257760 -113.462405
631.897650 -495.525895 -114.156805
630.041333 -495.794030 -114.851205
628.185016 -496.062164 -115.545605
626.328699 -496.330299 -116.240005
624.472382 -496.598434 -116.934405
622.616065 -496.866568 -117.628805
620.759748 -497.134703 -118.323205
618.903431 -497.402838 -119.017605
617.047114 -497.670972 -119.712005
615.190798 -497.939107 -120.406405
613.334481 -498.207242 -121.100805
611.478164 -498.475376 -121.795205
609.621847 -498.743511 -122.489605
607.765530 -499.011646 -123.184005
605.909213 -499.279780 -123.878405
604.052896 -499.547915 -124.572806
602.196579 -499.816050 -125.267206
600.340262 -500.084184 -125.961606
598.483945 -500.352319 -126.656006
596.627629 -500.620454 -127.350406
594.771312 -500.888588 -128.044806
592.914995 -501.156723 -128.739206
591.058678 -501.424858 -129.433606
589.202361 -501.692992 -130.128006
587.346044 -501.961127 -130.822406
585.489727 -502.229262 -131.516806
583.633410 -502.497396 -132.211206
581.777093 -502.765531 -132.905606
579.920777 -503.033666 -133.600006
578.064460 -503.301800 -134.294406
576.208143 -503.569935 -134.988806
574.351826 -503.838070 -135.683206
572.495509 -504.106204 -136.377606
570.639192 -504.374339 -137.072006
568.782875 -504.642474 -137.766406
566.926558 -504.910608 -138.460806
565.070241 -505.178743 -139.155206
563.213924 -505.446878 -139.849606
561.357608 -505.715012 -140.544006
559.501291 -505.983147 -141.238406
557.644974 -506.251282 -141.932806
555.788657 -506.519416 -142.627206
553.932340 -506.787551 -143.321606
552.076023 -507.055686 -144.016006
550.219706 -507.323820 -144.710406
548.363389 -507.591955 -145.404806
546.507072 -507.860090 -146.099206
544.650756 -508.128224 -146.793606
542.794439 -508.396359 -147.488006
540.938122 -508.664494 -148.182406
539.081805 -508.932628 -148.876806
537.225488 -509.200763 -149.571206
535.369171 -509.468898 -150.265606
533.512854 -509.737032 -150.960006
531.656537 -510.005167 -151.654406
529.800220 -510.273301 -152.348806
527.943904 -510.541436 -153.043206
526.087587 -510.809571 -153.737606
524.231270 -511.077705 -154.432007
522.374953 -511.345840 -155.126407
520.518636 -511.613975 -155.820807
518.662319 -511.882109 -156.515207
516.806002 -512.150244 -157.209607
514.949685 -512.418379 -157.904007
513.093368 -512.686513 -158.598407
511.237051 -512.954648 -159.292807
509.380735 -513.222783 -159.987207
507.524418 -513.490917 -160.681607
504.000000 -514.000000 -162.000000
502.264396 -513.596371 -162.908165
500.528792 -513.192742 -163.816330
498.793189 -512.789114 -164.724494
497.057585 -512.385485 -165.632659
495.321981 -511.981856 -166.540824
493.586377 -511.578227 -167.448989
491.850773 -511.174598 -168.357153
490.115170 -510.770970 -169.265318
488.379566 -510.367341 -170.173483
486.643962 -509.963712 -171.081648
484.908358 -509.560083 -171.989813
483.172754 -509.156455 -172.897977
481.437151 -508.752826 -173.806142
479.701547 -508.349197 -174.714307
477.965943 -507.945568 -175.622472
476.230339 -507.541939 -176.530636
474.494735 -507.138311 -177.438801
472.759132 -506.734682 -178.346966
471.023528 -506.331053 -179.255131
469.287924 -505.927424 -180.163296
467.552320 -505.523795 -181.071460
465.816716 -505.120167 -181.979625
464.081113 -504.716538 -182.887790
462.345509 -504.312909 -183.795955
460.609905 -503.909280 -184.704119
458.874301 -503.505651 -185.612284
457.138698 -503.102023 -186.520449
455.403094 -502.698394 -187.428614
453.667490 -502.294765 -188.336779
451.931886 -501.891136 -189.244943
450.196282 -501.487508 -190.153108
448.460679 -501.083879 -191.061273
446.725075 -500.680250 -191.969438
444.989471 -500.276621 -192.877602
443.253867 -499.872992 -193.785767
441.518263 -499.469364 -194.693932
439.782660 -499.065735 -195.602097
438.047056 -498.662106 -196.510262
436.311452 -498.258477 -197.418426
434.575848 -497.854848 -198.326591
432.840244 -497.451220 -199.234756
431.104641 -497.047591 -200.142921
429.369037 -496.643962 -201.051085
427.633433 -496.240333 -201.959250
425.897829 -495.836704 -202.867415
424.162225 -495.433076 -203.775580
422.426622 -495.029447 -204.683745
420.691018 -494.625818 -205.591909
418.955414 -494.222189 -206.500074
417.219810 -493.818561 -207.408239
415.484206 -493.414932 -208.316404
413.748603 -493.011303 -209.224568
412.012999 -492.607674 -210.132733
410.277395 -492.204045 -211.040898
408.541791 -491.800417 -211.949063
406.806187 -491.396788 -212.857228
405.070584 -490.993159 -213.765392
403.334980 -490.589530 -214.673557
401.599376 -490.185901 -215.581722
399.863772 -489.782273 -216.489887
398.128168 -489.378644 -217.398051
396.392565 -488.975015 -218.306216
394.656961 -488.571386 -219.214381
392.921357 -488.167757 -220.122546
391.185753 -487.764129 -221.030711
389.450149 -487.360500 -221.938875
387.714546 -486.956871 -222.847040
385.978942 -486.553242 -223.755205
384.243338 -486.149614 -224.663370
382.507734 -485.745985 -225.571534
380.772130 -485.342356 -226.479699
379.036527 -484.938727 -227.387864
377.300923 -484.535098 -228.296029
375.565319 -484.131470 -229.204194
373.829715 -483.727841 -230.112358
372.094111 -483.324212 -231.020523
370.358508 -482.920583 -231.928688
368.622904 -482.516954 -232.836853
366.887300 -482.113326 -233.745017
365.151696 -481.709697 -234.653182
363.416093 -481.306068 -235.561347
361.680489 -480.902439 -236.469512
359.944885 -480.498810 -237.377677
358.209281 -480.095182 -238.285841
356.473677 -479.691553 -239.194006
354.738074 -479.287924 -240.102171
353.002470 -478.884295 -241.010336
351.266866 -478.480666 -241.918500
349.531262 -478.077038 -242.826665
347.795658 -477.673409 -243.734830
346.060055 -477.269780 -244.642995
344.324451 -476.866151 -245.551159
342.588847 -476.462523 -246.459324
340.853243 -476.058894 -247.367489
339.117639 -475.655265 -248.275654
337.382036 -475.251636 -249.183819
335.646432 -474.848007 -250.091983
333.910828 -474.444379 -251.000148
332.000000 -474.000000 -252.000000
330.000000 -474.000000 -252.000000
328.000000 -474.000000 -252.000000
326.000000 -474.000000 -252.000000
324.000000 -474.000000 -252.000000
322.000000 -474.000000 -252.000000
320.000000 -474.000000 -252.000000
318.000000 -474.000000 -252.000000
316.000000 -474.000000 -252.000000
314.000000 -474.000000 -252.000000
312.000000 -474.000000 -252.000000
310.000000 -474.000000 -252.000000
308.000000 -474.000000 -252.000000
306.000000 -474.000000 -252.000000
304.000000 -474.000000 -252.000000
302.000000 -474.000000 -252.000000
300.000000 -474.000000 -252.000000
298.000000 -474.000000 -252.000000
296.000000 -474.000000 -252.000000
294.000000 -474.000000 -252.000000
292.000000 -474.000000 -252.000000
290.000000 -474.000000 -252.000000
288.000000 -474.000000 -252.000000
286.000000 -474.000000 -252.000000
284.000000 -474.000000 -252.000000
282.000000 -474.000000 -252.000000
280.000000 -474.000000 -252.000000
278.000000 -474.000000 -252.000000
276.000000 -474.000000 -252.000000
274.000000 -474.000000 -252.000000
272.000000 -474.000000 -252.000000
270.000000 -474.000000 -252.000000
268.000000 -474.000000 -252.000000
266.000000 -474.000000 -252.000000
264.000000 -474.000000 -252.000000
262.000000 -474.000000 -252.000000
260.000000 -474.000000 -252.000000
258.000000 -474.000000 -252.000000
256.000000 -474.000000 -252.000000
254.000000 -474.000000 -252.000000
252.000000 -474.000000 -252.000000
250.000000 -474.000000 -252.000000
248.000000 -474.000000 -252.000000
246.000000 -474.000000 -252.000000
244.000000 -474.000000 -252.000000
242.000000 -474.000000 -252.000000
240.000000 -474.000000 -252.000000
238.000000 -474.000000 -252.000000
236.000000 -474.000000 -252.000000
234.000000 -474.000000 -252.000000
232.000000 -474.000000 -252.000000
230.000000 -474.000000 -252.000000
228.000000 -474.000000 -252.000000
226.000000 -474.000000 -252.000000
224.000000 -474.000000 -252.000000
222.000000 -474.000000 -252.000000
220.000000 -474.000000 -252.000000
218.000000 -474.000000 -252.000000
216.000000 -474.000000 -252.000000
214.000000 -474.000000 -252.000000
212.000000 -474.000000 -252.000000
210.000000 -474.000000 -252.000000
208.000000 -474.000000 -252.000000
206.000000 -474.000000 -252.000000
204.000000 -474.000000 -252.000000
202.000000 -474.000000 -252.000000
200.000000 -474.000000 -252.000000
198.000000 -474.000000 -252.000000
196.000000 -474.000000 -252.000000
194.000000 -474.000000 -252.000000
192.000000 -474.000000 -252.000000
190.000000 -474.000000 -252.000000
188.000000 -474.000000 -252.000000
186.000000 -474.000000 -252.000000
184.000000 -474.000000 -252.000000
182.000000 -474.000000 -252.000000
180.000000 -474.000000 -252.000000
178.000000 -474.000000 -252.000000
176.000000 -474.000000 -252.000000
174.000000 -474.000000 -252.000000
172.000000 -474.000000 -252.000000
170.000000 -474.000000 -252.000000
168.000000 -474.000000 -252.000000
166.000000 -474.000000 -252.000000
164.000000 -474.000000 -252.000000
162.000000 -474.000000 -252.000000
160.000000 -474.000000 -252.000000
158.000000 -474.000000 -252.000000
156.000000 -474.000000 -252.000000
154.000000 -474.000000 -252.000000
152.000000 -474.000000 -252.000000
150.000000 -474.000000 -252.000000
148.000000 -474.000000 -252.000000
146.000000 -474.000000 -252.000000
144.000000 -474.000000 -252.000000
142.000000 -474.000000 -252.000000
140.000000 -474.000000 -252.000000
138.000000 -474.000000 -252.000000
136.000000 -474.000000 -252.000000
134.000000 -474.000000 -252.000000
132.000000 -474.000000 -252.000000
130.000000 -474.000000 -252.000000
128.000000 -474.000000 -252.000000
126.000000 -474.000000 -252.000000
124.000000 -474.000000 -252.000000
122.000000 -474.000000 -252.000000
120.000000 -474.000000 -252.000000
118.000000 -474.000000 -252.000000
116.000000 -474.000000 -252.000000
114.000000 -474.000000 -252.000000
112.000000 -474.000000 -252.000000
110.000000 -474.000000 -252.000000
108.000000 -474.000000 -252.000000
106.000000 -474.000000 -252.000000
104.000000 -474.000000 -252.000000
102.000000 -474.000000 -252.000000
100.000000 -474.000000 -252.000000
98.000000 -474.000000 -252.000000
96.000000 -474.000000 -252.000000
94.000000 -474.000000 -252.000000
92.000000 -474.000000 -252.000000
90.000000 -474.000000 -252.000000
88.000000 -474.000000 -252.000000
86.000000 -474.000000 -252.000000
84.000000 -474.000000 -252.000000
82.000000 -474.000000 -252.000000
80.000000 -474.000000 -252.000000
78.000000 -474.000000 -252.000000
76.000000 -474.000000 -252.000000
74.000000 -474.000000 -252.000000
72.000000 -474.000000 -252.000000
70.000000 -474.000000 -252.000000
68.000000 -474.000000 -252.000000
64.000000 -474.000000 -252.000000
62.000000 -474.000000 -252.000000
60.000000 -474.000000 -252.000000
58.000000 -474.000000 -252.000000
56.000000 -474.000000 -252.000000
54.000000 -474.000000 -252.000000
52.000000 -474.000000 -252.000000
50.000000 -474.000000 -252.000000
48.000000 -474.000000 -252.000000
46.000000 -474.000000 -252.000000
44.000000 -474.000000 -252.000000
42.000000 -474.000000 -252.000000
40.000000 -474.000000 -252.000000
38.000000 -474.000000 -252.000000
36.000000 -474.000000 -252.000000
34.000000 -474.000000 -252.000000
32.000000 -474.000000 -252.000000
30.000000 -474.000000 -252.000000
28.000000 -474.000000 -252.000000
26.000000 -474.000000 -252.000000
24.000000 -474.000000 -252.000000
22.000000 -474.000000 -252.000000
20.000000 -474.000000 -252.000000
18.000000 -474.000000 -252.000000
16.000000 -474.000000 -252.000000
14.000000 -474.000000 -252.000000
12.000000 -474.000000 -252.000000
10.000000 -474.000000 -252.000000
8.000000 -474.000000 -252.000000
6.000000 -474.000000 -252.000000
4.000000 -474.000000 -252.000000
2.000000 -474.000000 -252.000000
0.000000 -474.000000 -252.000000
-2.000000 -474.000000 -252.000000
-4.000000 -474.000000 -252.000000
-6.000000 -474.000000 -252.000000
-8.000000 -474.000000 -252.000000
-10.000000 -474.000000 -252.000000
-12.000000 -474.000000 -252.000000
-14.000000 -474.000000 -252.000000
-16.000000 -474.000000 -252.000000
-18.000000 -474.000000 -252.000000
-20.000000 -474.000000 -252.000000
-22.000000 -474.000000 -252.000000
-24.000000 -474.000000 -252.000000
-26.000000 -474.000000 -252.000000
-28.000000 -474.000000 -252.000000
-30.000000 -474.000000 -252.000000
-32.000000 -474.000000 -252.000000
-34.000000 -474.000000 -252.000000
-36.000000 -474.000000 -252.000000
-38.000000 -474.000000 -252.000000
-40.000000 -474.000000 -252.000000
-42.000000 -474.000000 -252.000000
-44.000000 -474.000000 -252.000000
-46.000000 -474.000000 -252.000000
-48.000000 -474.000000 -252.000000
-50.000000 -474.000000 -252.000000
-52.000000 -474.000000 -252.000000
-54.000000 -474.000000 -252.000000
-56.000000 -474.000000 -252.000000
-58.000000 -474.000000 -252.000000
-60.000000 -474.000000 -252.000000
